ply
format ascii 1.0
comment Created by Open3D
element vertex 813
property double x
property double y
property double z
property double nx
property double ny
property double nz
end_header
0.0174506 0.0616819 0.049258 0.44033 -0.150977 0.882061
0.023888 0.0669183 0.0452412 0.574689 -0.0160008 0.815692
-0.0541665 0.0473222 0.0410074 0.0148721 0.857388 0.508929
0.0604773 0.0597708 0.00968814 0.956882 -0.222255 -0.181396
0.0529425 0.0664727 0.027008 0.294033 0.497491 0.813661
-0.037202 0.164681 -0.000500308 0.766404 -0.226011 0.587866
0.0056714 0.0583812 0.0539525 0.250767 -0.440795 0.853937
0.0207585 0.113196 0.0367203 0.326926 0.410232 0.848677
0.0178575 0.0487047 0.0432132 0.466395 -0.483541 0.71853
0.0237655 0.0802246 0.0493429 0.511409 -0.0198134 0.857566
-0.0809145 0.14882 0.0373091 -0.425973 0.739841 0.518122
-0.0055335 0.10317 0.0437973 -0.072917 -0.0964437 0.992629
0.0322491 0.102295 0.0361929 0.567079 0.405891 0.716551
0.0520502 0.0499158 6.08105e-05 0.627945 -0.532012 -0.565738
0.0298533 0.0674507 0.0419424 0.487956 0.0742836 0.868472
-0.00157169 0.0388172 0.0471516 0.283756 0.0286207 0.958051
0.0363523 0.107472 0.0279064 0.734166 0.421049 0.531775
-0.0531707 0.0432824 -0.00901189 -0.332577 0.488335 -0.806088
-0.0352396 0.161867 -0.00103547 0.285118 0.648104 0.685037
0.0240402 0.10776 0.0388935 0.257672 0.351581 0.894825
0.0238515 0.0436155 0.0400241 0.670313 -0.0526375 0.738361
0.0348947 0.0683427 0.0385825 0.606291 0.0946348 0.789201
-0.0940937 0.120597 0.0154424 -0.986277 -0.0786492 -0.136462
-0.0867282 0.0859009 0.022707 -0.848434 -0.445769 0.278974
-0.0616905 0.159422 -0.0273168 0.984266 0.146009 0.0509132
-0.0615564 0.157952 -0.0312163 0.995157 -0.0671772 -0.0337078
0.0510461 0.0465734 0.00333829 0.626617 -0.705097 -0.330398
-0.0551718 0.151111 0.0283603 0.876209 0.0839922 0.473226
-0.0603138 0.0459986 0.0305062 -0.458058 0.837752 -0.295558
-0.0902234 0.134662 0.0100893 -0.867618 0.468771 -0.16072
-0.0844286 0.0801502 0.021475 -0.815337 -0.350655 0.459153
-0.0942577 0.125825 0.022946 -0.978315 0.1392 0.148053
-0.0924766 0.131436 0.0231812 -0.886129 0.442713 0.125921
-0.00788531 0.0392331 0.0362186 0.0088071 -0.993214 0.113367
-0.0410419 0.047567 -0.0127115 -0.414066 0.768116 -0.473892
-0.0622863 0.155123 -0.0326601 0.949642 -0.262662 -0.168599
-0.0615616 0.156279 -0.0256835 0.993282 -0.0894334 0.00260568
-0.062965 0.17404 -0.0538476 0.835786 0.385344 0.390515
-0.0326113 0.0964464 -0.0233913 -0.0849572 0.243371 -0.966037
0.0271314 0.0586594 -0.0216277 0.735989 -0.319498 -0.595212
0.056165 0.0532187 0.00336207 0.83418 -0.301444 -0.45944
0.0263945 0.0478551 -0.0173996 0.564972 -0.66083 -0.490798
-0.0603529 0.0422885 0.0240925 -0.542057 0.640793 -0.53872
-0.0887266 0.150025 0.011033 -0.706147 0.476521 -0.521324
-0.0576483 0.0443319 0.0244237 -0.486505 0.746075 -0.452683
-0.0634609 0.166044 -0.035546 0.861136 0.4967 0.101708
-0.0887459 0.100972 0.019217 -0.943714 0.250892 0.213873
-0.0337829 0.0645162 -0.0156689 -0.749956 -0.415335 -0.485419
-0.0501842 0.053705 0.0169673 -0.940002 -0.271728 -0.138475
-0.0630532 0.155195 -0.03657 0.892639 -0.385899 -0.232655
-0.0621024 0.163036 -0.0364118 0.97144 0.233378 0.0149064
-0.088769 0.0881605 0.00896038 -0.937537 -0.285976 -0.158959
-0.0882475 0.0871796 0.00534061 -0.95643 -0.212716 -0.172019
-0.0190413 0.164806 -0.0175209 -0.14999 -0.618032 -0.770255
-0.00966995 0.167151 -0.0204946 0.86595 -0.384107 0.0244062
0.0398377 0.0810341 -0.0111437 0.849719 -0.272528 -0.449581
0.0347928 0.0700208 -0.0159194 0.73267 0.0843146 -0.674707
0.0252563 0.0559097 -0.0223946 0.78683 -0.261384 -0.552986
-0.0765157 0.115545 -0.0056199 -0.407668 -0.335862 -0.842322
-0.0881786 0.0981154 0.00601282 -0.935605 0.108613 -0.33372
-0.0567739 0.159592 0.00375198 -0.673226 0.73442 0.0540307
-0.0281023 0.0362848 0.016987 0.572865 -0.752514 0.210822
0.019852 0.0433001 -0.0210917 0.695556 -0.340873 -0.61179
0.0279863 0.0705436 -0.0228707 0.606845 -0.178255 -0.771292
-0.0677496 0.118447 -0.00877297 -0.137154 -0.0219536 -0.98847
-0.0878714 0.086479 0.0186935 -0.853404 -0.505922 0.114573
-0.0678191 0.142732 -0.0112794 0.0957516 -0.922038 -0.372415
0.0606851 0.0665243 0.0124073 0.976692 0.192456 -0.0821733
0.0238037 0.0403381 -0.00589421 0.546651 -0.592991 -0.579095
-0.0922402 0.12523 0.040699 -0.922103 0.283375 0.259146
0.0552295 0.0493059 0.00663639 0.70365 -0.683202 -0.19315
0.0197769 0.0389243 -0.0143609 0.846087 -0.501926 -0.176297
-0.0852184 0.0809693 0.00538404 -0.915539 -0.192117 -0.349345
-0.0919307 0.129755 0.00968879 -0.938063 0.153988 -0.306137
0.0347011 0.0560494 -0.0103421 0.70186 -0.519895 -0.486179
0.0368214 0.0595786 -0.0104244 0.763801 -0.391777 -0.511477
-0.0029332 0.122844 -0.0104359 0.164954 0.646922 -0.743278
-0.0652576 0.14695 -0.022929 0.550177 -0.79086 -0.225481
-0.0676093 0.147831 -0.0302666 0.25334 -0.941694 -0.204421
0.0309245 0.0535277 -0.0143606 0.842521 -0.309908 -0.434504
-0.0879105 0.146376 0.00894429 -0.713691 -0.0883321 -0.688927
-0.0100707 0.101671 -0.0241054 0.0588983 0.228885 -0.968699
-0.0230217 0.158996 -0.0115957 0.140117 -0.814296 -0.56016
-0.0899618 0.117195 0.00488569 -0.824315 -0.254771 -0.502311
0.0303333 0.0562134 -0.016289 0.771748 -0.19938 -0.601205
0.0377754 0.108127 0.000408339 0.833874 0.454005 -0.312807
0.0331711 0.0619923 -0.0165152 0.792753 -0.194346 -0.576424
0.0384598 0.0750003 -0.0112492 0.704801 0.134049 -0.693238
0.0327636 0.1145 -0.0014911 0.717268 0.598551 -0.356201
0.0194799 0.0374333 -0.0110824 0.853297 -0.503048 -0.135417
-0.056733 0.0513464 0.00699058 -0.907627 0.28256 0.307052
-0.0624612 0.14884 -0.00810476 0.994124 0.0906529 0.0372635
-0.0659287 0.154723 -0.0497686 0.78392 -0.569484 -0.20723
-0.0907716 0.146631 0.0145346 -0.950256 -0.153678 -0.270402
-0.0623329 0.150825 -0.0151064 0.99283 -0.103649 -0.0306608
0.0368915 0.0676277 -0.0137763 0.703503 -0.12607 -0.694151
0.021524 0.0398078 -0.00914043 0.813301 -0.513811 -0.265162
-0.0877763 0.10192 0.00761892 -0.902234 0.271152 -0.335087
0.0375645 0.0631095 -0.0111733 0.784741 -0.183879 -0.58915
-0.0876041 0.140993 0.0099157 -0.878643 0.158683 -0.441569
0.0257477 0.044297 -0.00870086 0.618658 -0.725155 -0.299911
-0.0622671 0.160455 -0.0397941 0.981841 -0.132837 -0.127957
-0.0622462 0.163552 -0.0405704 0.990682 0.0873573 -0.0121927
-0.0860789 0.139767 0.0036489 -0.837613 0.389717 -0.371511
-0.00600855 0.0339805 -0.0229794 0.0497658 -0.922889 -0.319684
-0.0643845 0.11149 -0.013425 -0.499896 0.333742 -0.797492
0.0121217 0.0350119 -0.0204012 0.253811 -0.83888 -0.44505
-0.00680927 0.0384004 0.0200258 0.0151749 -0.999248 0.0298068
0.0359035 0.0797345 -0.0156993 0.695049 -0.364187 -0.619582
0.0272047 0.0461458 -0.0110482 0.668533 -0.717503 -0.184051
-0.0915311 0.140618 0.0185194 -0.964204 -0.259338 0.0335665
0.0412637 0.0803712 -0.00776128 0.849972 -0.163 -0.500358
-0.061627 0.157099 -0.0223112 0.993488 0.0746877 0.0667047
0.0176007 0.0882842 -0.0274589 0.555915 0.305433 -0.772573
0.0106023 0.0896796 0.0542531 0.23551 0.354612 0.904614
-0.0405936 0.151162 0.00426005 0.607558 -0.4053 0.681317
0.0332241 0.0725549 -0.0173894 0.802969 0.0153412 -0.594478
-0.0622284 0.160305 -0.023819 0.922554 0.365963 0.108758
-0.0270479 0.121651 -0.0074589 0.0278049 0.867123 -0.495678
0.0239657 0.0390304 0.0350192 0.727121 -0.648841 0.222515
0.0261002 0.0420072 0.035111 0.753677 -0.535726 0.379838
-0.0861821 0.0811849 0.00910291 -0.969043 -0.209689 -0.073221
0.0346933 0.103319 -0.0111712 0.693759 0.346853 -0.63033
-0.0326503 0.0580519 -0.0121179 -0.671628 -0.322225 -0.665899
0.0383537 0.0979311 -0.00854749 0.836639 0.113748 -0.534996
0.0153076 0.0391269 -0.0215191 0.457662 -0.420364 -0.778799
0.0513279 0.045629 0.007888 0.663492 -0.734302 -0.142183
-0.000476965 0.0342044 -0.0224526 0.0901676 -0.898563 -0.35157
-0.0628712 0.159392 -0.043125 0.952752 -0.279717 -0.109828
0.0392667 0.0657604 -0.00969812 0.853143 -0.240267 -0.462696
-0.00713863 0.0340184 -0.0197445 -0.0446418 -0.98661 0.147752
0.0424293 0.0420427 0.00120238 0.465099 -0.7127 -0.520722
0.0344281 0.0649635 -0.0156187 0.801944 -0.178031 -0.569435
-0.0324585 0.0340144 0.0205268 0.175998 -0.979571 0.0583205
0.0412935 0.0694787 -0.00740116 0.894783 -0.148389 -0.416127
-0.0544115 0.0450042 0.0160795 -0.42713 0.753801 0.498558
0.00299826 0.0346865 -0.0227527 0.136958 -0.832208 -0.517165
0.0435724 0.0991592 0.00644752 0.928239 0.357644 -0.098177
0.0310845 0.0711323 -0.0195093 0.71468 -0.181541 -0.673371
0.0365936 0.105908 -0.00527854 0.841359 0.441123 -0.311006
-0.0338121 0.0896782 -0.0244492 -0.204683 0.177123 -0.961619
-0.0628091 0.151846 -0.00960394 0.96617 0.214304 0.13926
0.0374658 0.0837391 -0.0156132 0.742551 -0.0697615 -0.6634
0.0350371 0.0752393 -0.0150477 0.79715 -0.100002 -0.593144
-0.090927 0.113323 0.0122479 -0.720527 -0.672135 -0.168716
0.0187071 0.0401897 -0.0193275 0.676124 -0.559836 -0.476359
-0.0464144 0.146906 0.00704744 0.66082 -0.543962 0.503276
-0.0488898 0.138325 0.00845503 0.972381 0.199386 -0.118926
-0.0912245 0.147592 0.0236178 -0.90919 0.337287 0.225814
0.0285149 0.0507559 -0.0176552 0.809025 -0.396361 -0.432234
0.0586183 0.0536858 0.0114195 0.921777 -0.370079 -0.105655
0.0197875 0.0360181 -0.00578226 0.761793 -0.558507 -0.327585
-0.0525041 0.0452179 0.0192024 -0.754166 0.621555 -0.134548
-0.0624306 0.148347 -0.0117149 0.987327 -0.130405 -0.0356678
-0.0624637 0.163 -0.0457649 0.994144 -0.096718 -0.039153
-0.0865556 0.105324 0.00732612 -0.931667 0.274863 -0.235356
0.0374146 0.077916 -0.0126225 0.75382 -0.307203 -0.572747
0.0327011 0.0678532 -0.0178774 0.632174 0.0104849 -0.773455
0.0415421 0.091688 -0.0079821 0.843079 0.337106 -0.409354
0.0410532 0.0728883 -0.00819993 0.849576 0.0474866 -0.523117
0.0322331 0.0778103 -0.0193812 0.724639 -0.0219048 -0.68238
-0.0879506 0.112413 0.00721312 -0.664393 -0.651716 -0.364269
-0.0403239 0.0347373 -0.0288307 -0.435473 -0.192285 -0.760216
-0.0895701 0.134652 0.00632046 -0.857285 0.422414 -0.279
0.0321804 0.0647952 -0.0183087 0.627382 -0.0471434 -0.761357
-0.0896871 0.151478 0.0174259 -0.616016 0.785643 0.000214282
-0.0631108 0.160272 -0.0471639 0.946459 -0.308687 -0.0803719
0.0308219 0.0592503 -0.0176809 0.628089 -0.426193 -0.647497
0.0422347 0.0867651 -0.0076865 0.924129 -0.0327453 -0.379988
-0.0435348 0.121722 0.0265155 -0.0900107 0.774699 0.621267
0.0390444 0.087365 -0.0132453 0.805365 0.169021 -0.56682
0.0389892 0.101515 0.0280248 0.846329 0.275024 0.454899
-0.0854581 0.109116 0.00661481 -0.953521 -0.0218056 -0.249901
-0.0353684 0.0718115 -0.0181204 -0.588922 -0.355949 -0.700238
-0.0858384 0.141942 0.00659752 -0.867832 0.370467 -0.322369
0.00885923 0.0348851 -0.0212611 0.137689 -0.825249 -0.505887
0.0349826 0.0594476 -0.013005 0.758742 -0.313387 -0.566353
0.0413586 0.083805 -0.00914841 0.910619 -0.128255 -0.391028
-0.0192878 0.0386743 -0.00972002 0.0503736 -0.997841 -0.0388687
0.0258928 0.110542 -0.0124619 0.319326 0.575694 -0.752108
-0.0380811 0.15027 0.000713736 0.542696 -0.762233 0.300826
-0.0627611 0.0451214 0.0361786 -0.705482 0.690151 0.118377
-0.0623596 0.166677 -0.0483266 0.994157 0.0389638 0.0724398
0.0212349 0.0427943 -0.0178458 0.886514 -0.378325 -0.258109
0.0417929 0.0956929 0.0265455 0.854018 0.277108 0.440076
-0.0543699 0.1459 0.0272165 0.964462 0.15269 0.213431
-0.0288705 0.0769115 -0.0349485 -0.60707 -0.0684123 -0.791265
-0.080949 0.121726 -0.00493159 -0.449661 -0.117817 -0.883754
-0.0617161 0.175471 -0.058865 0.947 0.260087 0.179338
0.0402825 0.0643019 -0.00674223 0.904534 -0.28125 -0.319876
0.0382232 0.106283 0.0257346 0.839672 0.419277 0.341155
-0.0119705 0.163818 -0.0143437 0.822965 -0.30325 0.334987
-0.0218325 0.163588 -0.0161373 -0.103387 -0.60213 -0.791082
0.0166671 0.0368005 -0.0185207 0.664359 -0.575868 -0.475775
0.0248064 0.0453043 -0.0140301 0.55259 -0.787942 -0.269025
0.0297224 0.0483714 -0.00904457 0.743112 -0.59981 -0.292334
0.0395428 0.0780335 -0.00980719 0.837191 -0.155723 -0.515681
0.039871 0.0706514 -0.0101466 0.848136 -0.0151027 -0.524744
-0.0895787 0.0936799 0.0158852 -0.993395 0.10709 0.0401125
0.0442611 0.0856556 0.0247331 0.937619 0.0885137 0.335143
0.0431675 0.0927632 0.0250214 0.917145 0.112481 0.381643
0.040878 0.0997216 0.0250851 0.870703 0.346904 0.34801
-0.0621837 0.152444 -0.0195309 0.977359 -0.209552 -0.00730009
-0.06297 0.169825 -0.0487309 0.897772 0.366225 0.237628
0.0574616 0.0513283 0.0147227 0.849809 -0.519917 0.0572313
-0.049105 0.145999 0.00964581 0.805264 -0.290411 0.505047
0.0418099 0.102862 0.0141154 0.908116 0.40456 0.107687
-0.0536899 0.14735 0.0242328 0.928509 -0.0741992 0.3576
-0.0570478 0.0432884 0.0167582 -0.38948 0.762335 0.516575
0.0295097 0.0493298 -0.0124582 0.801039 -0.547629 -0.238961
0.0580523 0.0559826 0.0219038 0.86247 -0.258726 0.430315
-0.0929464 0.131228 0.0188394 -0.911487 0.399026 -0.0653871
-0.083551 0.0802229 0.0252539 -0.878032 -0.465718 0.088024
0.0450633 0.0809039 0.0230659 0.944874 0.0599574 0.321236
0.0407074 0.102397 0.0223149 0.926922 0.328635 0.179358
-0.0516036 0.147081 0.0157547 0.971206 -0.0201986 0.234888
0.0447294 0.0944257 0.0136033 0.972438 0.22192 0.0696498
-0.052761 0.142129 0.023235 0.98316 0.142706 0.112515
0.0560037 0.0570849 0.000878521 0.812893 -0.258511 -0.520755
-0.0893005 0.148784 0.0262801 -0.742957 0.541734 0.389235
-0.0911681 0.134398 0.018576 -0.919477 0.374112 0.0137205
0.045146 0.0846843 0.0218705 0.980443 0.0557539 0.185881
0.0444134 0.0908515 0.0216238 0.968216 0.135653 0.207772
0.0427873 0.0976915 0.0217148 0.905186 0.375392 0.198075
-0.0627691 0.161924 -0.0515714 0.958657 -0.280282 0.00578287
-0.0510164 0.13873 0.0214947 0.824808 0.429362 0.367604
0.0564182 0.0516686 0.0210627 0.757195 -0.522508 0.387159
-0.0325352 0.16324 -0.014818 -0.152267 -0.345765 -0.925219
0.0460733 0.0846235 0.0100311 0.994689 0.0862429 0.0531484
0.0463462 0.0801931 0.011837 0.99666 0.0640032 0.0475255
0.0424801 0.0739873 -0.00535179 0.919185 0.00486801 -0.39106
0.0592269 0.0571805 0.0192975 0.945145 -0.255645 0.19943
0.0409181 0.1054 0.00866647 0.885987 0.463254 -0.013205
-0.0110154 0.174197 -0.0220966 0.684537 0.413528 0.598888
-0.0480371 0.136273 0.014723 0.895422 0.434901 0.092444
0.052503 0.0459309 0.012348 0.643462 -0.763486 -0.044043
-0.0360258 0.0794963 -0.0206626 -0.595847 -0.495869 -0.605352
0.045668 0.0865125 0.0139506 0.993729 0.0944527 0.059514
0.0523401 0.0463972 0.0186553 0.621802 -0.7566 0.199204
0.0454462 0.0854239 0.0187182 0.99293 0.088893 0.0784141
0.0419359 0.100905 0.0186487 0.907186 0.394378 0.146317
0.0609734 0.0623411 0.0124604 0.998125 -0.0360546 0.0488091
-0.0508936 0.140852 0.0188521 0.845031 0.406002 0.34694
0.0549971 0.0486384 0.0179796 0.717002 -0.684984 0.11729
0.0452486 0.0883479 0.0175154 0.992746 0.101284 0.0641793
0.0443736 0.0946393 0.0171704 0.968288 0.224069 0.109968
0.0584777 0.0537285 0.0166836 0.928717 -0.360333 0.0816725
0.0603976 0.0669721 0.0164914 0.950528 0.238804 0.187406
-0.0621728 0.16943 -0.0518107 0.976869 0.101081 0.185634
0.0459011 0.0825137 0.0163288 0.991612 0.106105 0.0736445
0.0434525 0.0981519 0.0163806 0.936978 0.325173 0.125003
0.0405754 0.105099 0.0162383 0.912137 0.39725 0.0969479
0.0457145 0.0880073 0.011221 0.994801 0.0668155 0.0766034
0.0427465 0.101236 0.0111805 0.917345 0.393198 0.0600866
-0.0492039 0.137664 0.0173837 0.875673 0.430493 0.212328
-0.0515468 0.143787 0.016858 0.873406 0.347245 0.324834
0.0532224 0.0467123 0.0155752 0.655708 -0.749913 0.0826962
0.0600686 0.0581158 0.0159647 0.956981 -0.266952 0.112808
-0.0690539 0.156326 0.0166779 0.0169079 0.999285 -0.0298235
-0.0657116 0.155386 0.0078737 0.0645692 0.98937 -0.130038
-0.0816686 0.154867 0.0178547 -0.283811 0.958344 0.0291019
-0.0831083 0.154216 0.0211553 -0.300009 0.945498 0.119189
-0.06429 0.154338 -0.00797444 0.824637 0.493308 0.274912
-0.0688447 0.176377 -0.0478609 0.490771 0.71915 0.490374
-0.0864868 0.0809794 0.0153216 -0.957822 -0.262522 0.0669973
-0.0671512 0.177519 -0.0512339 0.559278 0.666548 0.492267
-0.0711367 0.175828 -0.0445917 0.395714 0.812671 0.426995
-0.0711442 0.147501 0.0416431 0.13263 0.686812 0.713156
-0.0756236 0.176044 -0.0434495 -0.286155 0.831496 0.471571
-0.0755467 0.156059 0.0165076 -0.11549 0.993149 0.00620333
-0.0248659 0.0348691 0.04421 0.0564763 -0.996788 -0.0201446
-0.0505178 0.0525947 0.033321 -0.825518 0.272742 0.483481
0.0562796 0.0709288 0.0206825 0.550076 0.694795 0.454839
-0.0672478 0.156002 -0.00371998 0.620475 0.720776 0.307888
0.0559525 0.0728305 0.0159171 0.428846 0.89442 0.12223
0.0530996 0.0708148 0.0230614 0.170895 0.782002 0.59509
-0.0142764 0.12347 0.031775 -0.330174 0.766252 0.549889
0.0565949 0.0725102 0.0125653 0.45113 0.889335 -0.0535124
-0.0715807 0.159007 -0.00539533 -0.0515236 0.874563 0.46718
0.0507181 0.0718853 0.0213891 -0.129377 0.886857 0.43758
0.0483888 0.0699117 0.0239121 -0.239202 0.808095 0.533873
0.0515266 0.0733996 0.0170759 -0.0830029 0.981261 0.17185
-0.0141103 0.127817 0.023297 -0.31157 0.905937 0.285176
0.0451901 0.0692154 0.0242784 0.38616 0.577697 0.656736
-0.0781398 0.153039 0.00110589 -0.610003 0.748322 -0.239693
-0.0773963 0.154303 0.00449181 -0.376762 0.908289 -0.177946
-0.0932016 0.125325 0.027429 -0.959513 0.0476212 0.27643
0.0505826 0.0734751 0.0121271 -0.0897119 0.988984 -0.115709
-0.0642496 0.149406 0.0376225 0.34623 0.460865 0.812326
-0.0699716 0.156287 0.0218414 -0.00670598 0.998742 0.0442502
-0.0539605 0.0490694 0.0309285 -0.5562 0.827769 -0.0285453
0.0472584 0.0726096 0.0179578 0.464483 0.727323 0.388228
-0.0537094 0.15982 0.00729005 -0.287722 0.730366 0.612019
-0.0561802 0.156952 0.00963457 -0.232177 0.821542 0.509648
0.0456871 0.0729924 0.0206139 0.914147 0.143383 0.376081
-0.0578195 0.155694 0.0127389 0.0652565 0.98759 0.129742
-0.0664571 0.156089 0.0140925 0.0146863 0.997613 -0.065784
0.0487287 0.0728185 0.00959867 0.149689 0.956709 -0.222509
0.0464168 0.0756291 0.0165073 0.985113 0.140127 0.0937317
-0.075764 0.17058 -0.0322117 -0.468799 0.819348 0.322138
0.0468213 0.0748168 0.0120322 0.926925 0.322744 -0.0202857
-0.0447715 0.166405 -0.00823318 -0.651552 0.2802 -0.701475
0.00252809 0.100082 0.046955 0.116549 0.900043 0.412521
-0.0870311 0.109753 0.017346 -0.842432 -0.493878 0.0780262
-0.069584 0.171887 -0.0364656 0.420874 0.87973 0.216538
-0.0660675 0.163206 -0.0180872 0.651599 0.666262 0.360596
-0.072571 0.170915 -0.0304079 -0.0171956 0.955567 0.284739
0.0462683 0.0791243 0.015089 0.996821 0.0536417 0.0587133
-0.0690477 0.161167 -0.0104133 0.463664 0.758394 0.453941
-0.0934261 0.117259 0.0170598 -0.937045 -0.343696 -0.0573364
-0.0606155 0.155886 0.0195502 0.145266 0.988493 0.0225584
-0.0826705 0.076103 0.0129668 -0.797286 -0.596525 -0.004359
-0.0666549 0.140552 -0.00808164 0.184516 -0.421542 -0.871182
-0.0904212 0.132441 0.0308689 -0.897985 0.414546 0.144634
-0.0789739 0.154749 0.0254019 -0.229878 0.946026 0.224817
-0.0315857 0.153909 -0.00637964 0.282194 -0.887269 -0.358469
-0.0758104 0.155128 0.0266123 -0.174544 0.958699 0.220602
-0.080645 0.15399 0.00826893 -0.317748 0.921445 -0.222202
-0.0454253 0.166646 0.00361315 -0.20758 0.6749 0.705439
-0.0816474 0.154353 0.0118287 -0.291266 0.943652 -0.156101
-0.0730667 0.171963 -0.0338982 -0.0133977 0.946405 0.314819
-0.054608 0.153866 0.0174332 0.616188 0.780209 0.0872976
-0.0891108 0.0888707 0.0150737 -0.918754 -0.38794 -0.00701433
-0.0681754 0.15293 0.0343012 -0.00229664 0.898203 0.438663
-0.0735566 0.174969 -0.0411181 0.068678 0.902047 0.421648
-0.0318227 0.124611 -0.00103669 0.36378 0.887574 -0.280404
-0.0504538 0.135039 0.0264499 0.752677 0.561682 0.343334
-0.070298 0.150718 0.0378963 -0.0120764 0.808109 0.58824
-0.0855473 0.10625 0.00448069 -0.888171 0.269952 -0.371564
-0.0676447 0.16278 -0.01483 0.542174 0.744314 0.387111
-0.0387515 0.124805 0.023283 -0.0859322 0.887773 0.447534
-0.0672097 0.151115 0.0372039 0.118284 0.771657 0.620969
-0.0376892 0.127834 0.0135965 0.139638 0.977339 0.158008
-0.0856529 0.153488 0.0183393 -0.367401 0.929086 0.0120605
-0.0440254 0.130092 0.00955706 0.618665 0.775552 -0.0628084
-0.0445872 0.125987 0.0216444 0.778709 0.51456 0.333501
-0.0447687 0.129546 0.0193547 0.885478 0.410077 0.217068
-0.0447246 0.0521903 0.0386285 -0.384983 0.0893328 0.916434
-0.0912598 0.14897 0.0206511 -0.898461 0.402775 0.148235
-0.0518293 0.0499107 0.0223564 -0.935831 0.139816 -0.319792
-0.0321782 0.126004 0.0035978 0.357179 0.91407 -0.188857
-0.0336355 0.127061 0.0124994 0.269747 0.961626 0.0314163
-0.03373 0.127121 0.008988 0.34313 0.938308 -0.0389606
-0.0704585 0.154766 0.0296176 -0.0169145 0.95171 0.305624
-0.0162414 0.125757 0.025956 -0.400915 0.812861 0.422148
-0.039401 0.126864 0.0181693 0.0131706 0.952823 0.301687
-0.0752454 0.15547 -0.000982294 -0.609609 0.761117 0.192654
-0.0657878 0.174482 -0.0489303 0.666391 0.616581 0.416674
-0.0718042 0.156208 0.0142877 0.00496858 0.999503 -0.0205987
-0.0458086 0.12962 0.00273705 0.522535 0.779941 -0.288656
-0.0370801 0.128001 0.0103361 0.206109 0.977478 0.0391216
-0.0399302 0.122466 0.0270629 -0.224115 0.7783 0.582657
-0.0361904 0.127036 0.0165216 0.171598 0.961933 0.211749
-0.0355095 0.125289 0.0214809 0.236611 0.886477 0.397169
-0.0351261 0.126946 0.00247692 0.358063 0.923922 -0.133783
-0.0737561 0.15615 0.0202932 -0.0939295 0.994883 0.0360424
-0.0654238 0.156236 0.01793 0.0643414 0.997772 -0.0061431
-0.0640658 0.155897 0.0120923 0.0117021 0.995494 -0.0939665
-0.0722939 0.160997 -0.00904113 -0.227461 0.843675 0.473005
-0.0629019 0.155975 0.0227642 0.110607 0.986456 0.115728
-0.0624554 0.155631 0.00898887 -0.0797632 0.990922 -0.104638
-0.0574647 0.155125 0.0200516 0.320209 0.944678 0.0670858
-0.0648309 0.157167 -0.0104347 0.763723 0.523541 0.370691
-0.0664374 0.154659 0.0298492 0.00216557 0.947065 0.319959
-0.0680256 0.155906 0.0107509 0.0609693 0.992424 -0.105948
-0.0417564 0.123922 0.0237039 -0.173633 0.85017 0.496435
-0.0628555 0.157056 -0.0159164 0.874741 0.404649 0.263196
-0.0853517 0.153371 0.0140516 -0.385269 0.915193 -0.108201
-0.0545772 0.154446 0.0142875 0.521522 0.798705 0.272208
-0.036938 0.128 0.00722927 0.258868 0.964783 -0.0365128
-0.0631525 0.166829 -0.0415043 0.896099 0.416607 0.13377
-0.0685776 0.180812 -0.0545508 0.35013 0.868677 0.332558
-0.0649624 0.153442 -0.00312986 0.71067 0.692686 0.112274
-0.0416931 0.128624 0.00390692 0.172543 0.979942 -0.0983661
-0.0730473 0.15282 0.0340405 -0.0756053 0.882762 0.463419
-0.0624605 0.163391 -0.0326018 0.917446 0.390314 0.0592677
-0.0723643 0.155597 0.00440702 -0.112046 0.990582 0.0124486
-0.0429875 0.169148 0.00167056 -0.249508 0.761853 0.591067
-0.0192483 0.126381 0.0213733 -0.358736 0.882722 0.303133
-0.0746918 0.151305 0.0364264 -0.107355 0.844811 0.523974
-0.0755368 0.148665 0.0401847 -0.125327 0.797769 0.589271
0.035684 0.11143 0.0243419 0.818028 0.523431 0.238256
-0.0688461 0.16469 -0.0173594 0.398042 0.839417 0.367868
0.0394604 0.107631 0.00588612 0.822303 0.560783 -0.0946997
0.0375964 0.110492 0.0153575 0.822124 0.567776 0.039705
0.0359916 0.11223 0.0200461 0.824265 0.555088 0.11098
-0.0668697 0.154707 -0.000276713 0.555938 0.824341 0.0919636
0.0380093 0.110109 0.00928774 0.811763 0.582959 -0.0310783
-0.0657024 0.179745 -0.055921 0.574489 0.712768 0.399824
-0.028849 0.125423 0.0059484 0.0398484 0.993782 -0.0941902
-0.0889499 0.10046 0.0111334 -0.977482 0.187588 -0.0914061
-0.0464211 0.133327 0.0143649 0.850684 0.524806 0.0194514
0.0338389 0.11437 0.0239396 0.7726 0.579384 0.25359
-0.0405003 0.127842 0.0150139 0.142526 0.953226 0.265557
-0.011153 0.181459 -0.0269128 0.872262 0.387588 0.260556
0.0445528 0.0734015 0.0236652 0.93451 -0.0232119 0.354749
-0.0767193 0.155691 0.0219021 -0.157495 0.982942 0.0934698
-0.0599744 0.156195 0.00633479 -0.517852 0.847691 0.0436218
0.0354695 0.113619 0.0111226 0.807666 0.589507 -0.00653339
0.0308939 0.115377 0.0281241 0.669473 0.585463 0.456627
0.0343582 0.11503 0.0142783 0.803578 0.594576 0.0246942
0.0311301 0.117345 0.0244678 0.699535 0.660518 0.269097
-0.0435994 0.12883 0.015449 0.647237 0.724176 0.20821
-0.0924689 0.116924 0.0357381 -0.924016 -0.371323 -0.042327
-0.0387166 0.101352 -0.0214474 -0.145097 0.338846 -0.929239
-0.0895196 0.139576 0.0301883 -0.989486 -0.116678 -0.0296218
0.034615 0.11467 0.00769772 0.810861 0.584506 -0.0276741
0.0329583 0.116644 0.0170896 0.758182 0.650188 0.0487501
0.031873 0.117415 0.0210415 0.73666 0.669218 0.0967302
-0.0179397 0.159928 -0.0115551 0.194614 -0.898119 -0.387986
-0.0318312 0.125631 0.0179092 0.291422 0.921686 0.251203
-0.00234505 0.105497 0.0441359 0.0741984 0.129114 0.982962
-0.0688583 0.1217 0.0528855 0.391208 0.0344864 0.910373
-0.0403798 0.128702 0.00908563 0.172777 0.984527 0.0158743
-0.0691295 0.172729 -0.0399361 0.495786 0.819137 0.285449
-0.063052 0.153643 0.032494 0.0903366 0.918726 0.380805
-0.0675295 0.155654 0.0268047 0.0224648 0.967661 0.249796
-0.0680254 0.166009 -0.0213325 0.459321 0.820301 0.338968
0.0342086 0.114876 0.00378468 0.79581 0.592058 -0.123645
0.0268453 0.11885 0.0283259 0.518326 0.686066 0.510176
-0.0618813 0.15449 0.0294185 0.127502 0.959783 0.24905
0.0307141 0.11908 0.0168967 0.697173 0.714762 0.0537511
-0.0697698 0.156002 0.000919525 0.288724 0.923366 0.241727
0.0318126 0.118135 0.00910594 0.717444 0.695957 -0.0264114
0.0307097 0.119251 0.0133261 0.697566 0.716002 0.025503
0.0290994 0.12034 0.0192531 0.664025 0.74385 0.0757552
-0.025026 0.125027 0.00127255 -0.185088 0.957717 -0.219623
-0.0357254 0.121972 0.0275262 0.236048 0.772574 0.588088
-0.0880839 0.0916731 0.00613839 -0.91882 0.188082 -0.344051
0.0320183 0.117505 0.0047624 0.702422 0.700625 -0.122478
0.0267424 0.121532 0.0233505 0.575038 0.787228 0.221379
-0.087854 0.104306 0.0170831 -0.893055 0.423514 0.150499
-0.0548101 0.153411 0.0230248 0.709381 0.68705 0.119062
0.0258645 0.0401398 0.0325682 0.673113 -0.646563 0.355746
0.0250155 0.121733 0.0262742 0.577983 0.719612 0.383882
-0.0385509 0.127984 0.00261368 0.220519 0.969663 -0.101257
-0.0380767 0.174078 -0.00313197 -0.352723 0.836105 0.416563
0.0334907 0.0373183 0.0202235 0.268318 -0.926134 0.262916
0.00238516 0.0983152 0.050783 0.2254 0.814211 0.532285
-0.0625559 0.156041 0.0165588 0.0726464 0.997168 -0.00922888
0.0311739 0.117547 0.00154044 0.634753 0.738815 -0.225569
0.029131 0.120712 0.00942544 0.660789 0.748216 -0.0567888
0.00127554 0.122114 0.0355462 0.163513 0.679053 0.715497
-0.0649118 0.155714 -0.0451526 0.8871 -0.434523 -0.154126
-0.0573819 0.153322 0.0298415 0.466725 0.797409 0.355309
-0.0363586 0.0363375 0.0456956 -0.699474 -0.350339 0.604915
0.0260129 0.123155 0.0173017 0.62999 0.773898 0.0629939
-0.0490669 0.135756 0.0208581 0.808526 0.531089 0.251245
-0.0912043 0.119473 0.00683094 -0.884987 0.0023389 -0.464924
0.0280763 0.120626 0.00361723 0.60711 0.76777 -0.202821
0.0259702 0.123375 0.0138626 0.611664 0.790848 0.0152692
0.0239008 0.124247 0.0215451 0.554655 0.813577 0.172894
0.0217468 0.124008 0.0258074 0.399933 0.828551 0.389447
-0.0486679 0.117541 0.0315994 0.340293 0.461556 0.802613
-0.0289239 0.125437 0.0158478 0.0669391 0.983831 0.15859
-0.0295662 0.125804 0.0125523 0.140287 0.987569 0.0426719
0.0187594 0.123427 0.0292169 0.193743 0.84481 0.497195
-0.0472742 0.134583 0.0113957 0.891088 0.447036 -0.0752439
-0.00358189 0.0984578 0.051496 -0.00974759 0.811381 0.582407
-0.0500421 0.132675 0.0287008 0.785896 0.468635 0.403134
0.0269101 0.120298 -0.000126027 0.564014 0.778221 -0.275938
0.0257674 0.122683 0.00479475 0.598673 0.777727 -0.190935
-0.0446162 0.129711 0.0060431 0.463218 0.863635 -0.183077
-0.0841283 0.150272 0.00475851 -0.735449 0.338712 -0.568878
0.0243902 0.124314 0.00862793 0.57201 0.813815 -0.102145
0.0233548 0.125208 0.0144416 0.555638 0.830597 0.0246762
0.0219504 0.125889 0.0179855 0.503414 0.861832 0.0607883
0.0206314 0.125977 0.0218299 0.320644 0.915377 0.23903
0.0152683 0.122799 0.0318559 0.458432 0.648826 0.606623
-0.0250212 0.126206 0.00929114 -0.231236 0.969996 -0.0676081
-0.0222628 0.123488 0.0249972 -0.299163 0.892462 0.336533
0.0591799 0.068259 0.0192316 0.853987 0.400349 0.320323
-0.00293101 0.100605 0.0468009 -0.0230178 0.965033 0.260213
-0.00433147 0.130748 0.0072032 -0.13467 0.987379 -0.0832393
-0.0281719 0.181193 -0.0095024 -0.497844 0.850884 0.121383
-0.00581808 0.099876 0.0490098 -0.0115225 0.918224 0.395825
-0.0380182 0.168677 -0.0127712 -0.544075 0.18898 -0.816337
-0.073743 0.169359 -0.0268682 -0.333581 0.868074 0.35857
0.0156094 0.125961 0.0278377 0.473745 0.719033 0.50686
-0.0575366 0.150469 0.0325265 0.84202 0.0806283 0.515464
-0.0653594 0.16781 -0.0322274 0.728112 0.659091 0.184925
-0.090148 0.122399 0.00510589 -0.887802 0.0440596 -0.456538
-0.0116545 0.173827 -0.0277902 -0.429789 -0.432982 -0.788061
0.0229589 0.124677 0.0044995 0.54393 0.824405 -0.153556
0.0203789 0.126891 0.0146284 0.467084 0.883812 0.0203258
0.019127 0.127191 0.0187063 0.403348 0.902807 0.142549
0.0121104 0.123784 0.0326023 0.192958 0.709513 0.677465
-0.0848382 0.0783305 0.011157 -0.771021 -0.630142 -0.0132688
-0.0107663 0.097532 0.0516985 -0.252628 0.772352 0.581235
-0.0672598 0.167436 -0.0260196 0.556801 0.775379 0.295167
-0.0636959 0.161436 -0.0203549 0.790522 0.540976 0.286205
-0.0902165 0.129482 0.00589134 -0.851534 0.0365328 -0.521029
0.0207971 0.12666 0.0107907 0.47056 0.881132 -0.0429558
0.0153254 0.12773 0.0242173 0.39128 0.88468 0.249258
-0.0349144 0.176932 -0.0069108 -0.472095 0.863295 0.142863
0.000203174 0.0968333 0.0533018 0.137644 0.661458 0.733037
-0.0834911 0.152478 0.00720341 -0.467421 0.815987 -0.331785
-0.0924478 0.121494 0.00894012 -0.899903 -0.109439 -0.419352
-0.0105103 0.0995412 0.0481988 -0.23339 0.902689 0.360652
-0.0722769 0.17926 -0.0494177 0.272397 0.810932 0.514148
-0.0346892 0.161023 -0.0135886 -0.146712 -0.398884 -0.903531
-0.0900552 0.125584 0.00477984 -0.827324 0.0206481 -0.559622
0.0170248 0.128506 0.0146781 0.374045 0.926978 0.0239811
0.0156378 0.128756 0.0191313 0.411019 0.897444 0.155357
0.0118573 0.12719 0.028395 0.191851 0.834275 0.516807
-0.0461038 0.132416 0.0174117 0.851854 0.515022 0.0948612
-0.0721821 0.155947 0.0102006 -0.0496979 0.99227 -0.111658
0.0192537 0.126712 0.00368747 0.461827 0.872742 -0.156372
0.018956 0.127346 0.00695707 0.450789 0.887543 -0.094507
0.0122423 0.128521 0.0250642 0.297472 0.906745 0.298717
-0.0484736 0.132862 0.0249695 0.826966 0.438536 0.351079
-0.0706344 0.155675 0.00720581 0.0381354 0.996408 -0.0664266
-0.0698744 0.170891 -0.0320556 0.33409 0.910052 0.244701
0.0174392 0.128303 0.00949769 0.429034 0.900677 -0.0628231
0.0574527 0.0677253 0.0227387 0.733022 0.408889 0.540619
-0.0225141 0.0684355 0.048343 -0.822816 -0.322146 0.467957
-0.0236214 0.0654626 0.0443403 -0.807342 -0.328065 0.49029
-0.0641862 0.0378788 0.0414159 -0.840737 0.229896 0.484861
-0.0271618 0.0542642 0.0374696 -0.671397 0.184215 0.701835
-0.0753905 0.156503 -0.00440994 -0.729854 0.636871 0.223752
-0.0173372 0.0936059 0.0538834 -0.390505 0.590501 0.705114
-0.0277777 0.0789222 0.0461914 -0.841855 -0.298335 0.449367
-0.0325037 0.0457685 0.0458627 -0.540134 0.670639 0.502676
-0.0531505 0.0394348 -0.0110658 -0.264345 0.328826 -0.905607
-0.0243288 0.055661 0.0414 -0.817214 -0.0257007 0.575359
-0.0189552 0.0387582 0.0322967 0.03597 -0.997314 0.0628098
-0.0256658 0.0379369 0.0117922 0.00430248 -0.999469 -0.0308248
-0.0510295 0.14536 -0.000796221 0.142474 -0.643696 -0.747468
-0.0139743 0.166442 -0.0204632 -0.267047 -0.697318 -0.663257
-0.0498296 0.057153 0.0336718 -0.841626 -0.0013322 0.539469
-0.0166709 0.0968334 0.0501367 -0.297834 0.859024 0.414827
-0.0497729 0.0608066 0.0340514 -0.784917 -0.113111 0.606877
-0.043815 0.0644927 0.0403938 -0.507184 -0.0648318 0.857158
-0.0751258 0.163339 -0.0160473 -0.574301 0.719822 0.383063
-0.0495545 0.162706 -0.00511175 -0.67738 0.272161 -0.681491
-0.0456741 0.0565797 0.038324 -0.580476 -0.0540283 0.812118
-0.077405 0.166758 -0.0276821 -0.802365 0.518563 0.277956
-0.0349159 0.0393699 0.0479975 -0.85361 0.0355291 0.516491
-0.015237 0.102844 0.0433237 0.0280843 0.316129 0.94261
-0.0684838 0.0810007 0.0414758 -0.446263 -0.353229 0.821622
-0.0260696 0.038311 -0.00139797 -0.00659817 -0.999944 -0.00656062
-0.0692459 0.0850631 0.0424389 -0.541489 -0.197729 0.815821
-0.0764392 0.163843 -0.0195174 -0.777764 0.540391 0.309513
-0.019743 0.0718678 0.0534071 -0.583546 -0.216906 0.78173
-0.0763752 0.165404 -0.0225833 -0.699185 0.624606 0.331324
-0.0219768 0.0627151 0.045526 -0.834999 -0.172603 0.519529
-0.0207413 0.0384371 -0.003176 0.0327549 -0.998422 -0.0428669
-0.0767413 0.160682 -0.0146536 -0.863113 0.411415 0.257643
-0.0363884 0.0445978 0.0428044 -0.74719 0.541696 0.383176
-0.0592994 0.0409654 0.0451235 -0.570878 0.357926 0.738038
-0.0216104 0.088095 0.0547768 -0.484837 0.398572 0.77719
-0.0236078 0.0600906 0.0426206 -0.813412 -0.0590081 0.578359
-0.038989 0.040677 0.042015 -0.318326 0.218358 0.860585
-0.0266673 0.0706026 0.0420796 -0.853835 -0.269343 0.445214
-0.0354681 0.165519 -0.0146772 -0.37705 -0.102637 -0.916878
-0.07621 0.124875 -0.0076671 -0.329174 -0.111471 -0.935084
0.0253267 0.0347132 0.00506365 0.149073 -0.983747 -0.0923746
-0.0383567 0.160846 -0.0126148 -0.376728 -0.262844 -0.886346
-0.0233662 0.085272 0.0547274 -0.63731 0.232614 0.732392
-0.0759792 0.158319 -0.0092581 -0.807342 0.465835 0.326033
-0.0528271 0.0582332 0.023947 -0.805416 -0.529365 0.198345
-0.0306263 0.0915999 -0.0247955 -0.350072 0.213899 -0.898964
-0.0679672 0.0856778 -0.017836 -0.391998 0.0817492 -0.915038
-0.0499954 0.159119 -0.00552784 -0.626312 0.0907455 -0.774177
-0.0604658 0.0448715 0.0419652 -0.59279 0.614912 0.509639
-0.0154585 0.0622732 0.0532241 -0.407205 -0.186977 0.88967
-0.0403989 0.17233 -0.00175002 -0.363628 0.822598 0.435646
-0.0300762 0.0429474 0.0509288 -0.363423 0.400633 0.839866
-0.0275195 0.160993 -0.0142525 0.0029302 -0.582086 -0.812286
-0.0130704 0.0340253 -0.0244291 0.077704 -0.859785 -0.409151
-0.080228 0.140829 0.0464552 -0.401343 0.595984 0.693523
-0.0481207 0.0349303 0.0437895 0.143352 -0.944055 0.291965
-0.0317826 0.0483766 0.0435322 -0.382781 0.696048 0.60412
-0.0184281 0.0565352 0.0493638 -0.695155 -0.20384 0.688709
-0.0635771 0.163097 -0.0247643 0.81953 0.542299 0.18362
-0.0346828 0.04754 0.0411657 -0.633629 0.672984 0.380337
-0.0731636 0.134839 0.0503265 0.3831 0.340553 0.858048
-0.0771632 0.12107 0.0522606 -0.509216 -0.095907 0.853628
-0.0839219 0.136483 0.0471231 -0.581716 0.463407 0.668098
-0.0699415 0.146442 -0.0245411 -0.270241 -0.918571 -0.258635
-0.0485162 0.054656 0.0355488 -0.77785 0.0868245 0.62168
-0.0754824 0.0940613 0.0390161 -0.650459 0.137339 0.746283
-0.0248595 0.0774304 0.0512807 -0.811488 -0.408016 0.416482
-0.0583988 0.0477386 0.0371691 -0.388631 0.910026 0.0886195
-0.0365622 0.0417984 0.0449711 -0.740561 0.285646 0.604944
-0.0661579 0.0950768 -0.0175529 -0.445478 0.168465 -0.877026
-0.0739596 0.0866991 0.0399909 -0.498868 -0.20377 0.84197
-0.0264435 0.0903715 0.0477418 -0.752435 0.394045 0.526732
-0.0254412 0.0582208 0.0397962 -0.824819 -0.050355 0.562351
-0.0649657 0.131724 -0.00848295 0.163387 0.15795 -0.973766
-0.0253127 0.0803346 0.0526194 -0.822641 -0.197898 0.522377
-0.0832741 0.133471 0.0495747 -0.563038 0.409674 0.717144
-0.0845177 0.127328 0.050313 -0.628639 -0.0812915 0.771896
-0.0471618 0.0655369 0.0381875 -0.531627 -0.355501 0.764123
-0.0556229 0.0488111 0.0358995 -0.252745 0.963461 0.072223
-0.0257926 0.0673064 0.0418871 -0.835396 -0.265407 0.481003
-0.0770874 0.177149 -0.0466514 -0.548665 0.726534 0.394716
-0.0207435 0.0966189 0.0461465 -0.363713 0.727416 0.55025
-0.0709656 0.0395664 0.00215909 -0.887131 0.438208 -0.121761
-0.0802813 0.144967 0.0424358 -0.456416 0.646665 0.610983
-0.0200959 0.0386983 -0.0145863 0.014104 -0.998433 0.0451338
-0.0264544 0.158301 -0.0115373 0.151845 -0.771735 -0.614227
0.0273687 0.0543947 -0.0200419 0.660364 0.040835 -0.748229
-0.0430449 0.0584166 0.0399286 -0.334722 -0.117582 0.9302
-0.0754646 0.080483 0.0366828 -0.577031 -0.410525 0.705867
-0.0812176 0.136494 0.0491392 -0.433243 0.501851 0.746782
-0.0773438 0.0998604 -0.0103433 -0.663834 0.20173 -0.718046
-0.0283498 0.0766344 0.0437434 -0.835457 -0.322903 0.443994
-0.0399517 0.157521 -0.0106596 -0.262137 -0.425597 -0.864022
-0.0388656 0.0558627 -0.011122 0.0844346 -0.0845974 -0.992264
-0.0875538 0.132651 0.0449921 -0.857131 0.249249 0.449382
-0.0304322 0.168786 -0.0168501 -0.374676 -0.0936594 -0.917128
-0.0719208 0.089641 0.0415593 -0.336481 -0.0611784 0.936153
-0.0286746 0.0745052 0.0413207 -0.740924 -0.347678 0.573096
0.00239837 0.101469 -0.0224207 0.18404 0.267916 -0.943169
-0.0721846 0.0384451 0.00700843 -0.923162 0.297626 0.189428
-0.0767877 0.104541 0.03486 -0.694209 0.0895489 0.710734
-0.0856489 0.12342 0.0486663 -0.379028 -0.0200414 0.917549
-0.0630145 0.0944608 -0.0186807 -0.152065 0.192333 -0.965977
-0.0861611 0.131713 0.0477994 -0.771218 0.282997 0.56596
-0.0722626 0.0814345 0.0394723 -0.490509 -0.314565 0.812091
-0.0702982 0.0417186 0.00694468 -0.755309 0.601638 0.179647
-0.0835198 0.119944 0.0491756 -0.0404559 -0.0471975 0.995783
-0.0778416 0.0858553 0.0371156 -0.639389 -0.18161 0.745331
-0.0741458 0.0976509 0.0391354 -0.607778 0.27377 0.744627
-0.0278977 0.0412862 0.0533455 -0.398671 0.381312 0.822443
-0.0304399 0.0505796 0.0411705 -0.34645 0.849015 0.385203
-0.0880259 0.0954323 0.0241322 -0.898278 0.0523936 0.434475
-0.0872572 0.101676 0.0229837 -0.878301 0.328236 0.345531
-0.0255743 0.0842836 0.0521189 -0.875526 0.129076 0.464995
-0.0390071 0.0726046 -0.0174489 0.0275968 -0.275422 -0.958119
-0.0289557 0.0459677 0.0496976 -0.420935 0.588937 0.685018
-0.0662906 0.0389436 0.0355738 -0.942536 0.301281 0.106686
-0.0237514 0.0729884 0.0490344 -0.823957 -0.342811 0.449653
-0.0479785 0.057881 0.0361249 -0.7622 -0.0234706 0.646676
-0.0276955 0.0827468 0.0482521 -0.910944 -0.0425769 0.409366
-0.0857578 0.0869062 0.0257494 -0.829602 -0.357761 0.428491
-0.0396855 0.0794786 -0.0195358 -0.0512595 -0.361266 -0.930143
-0.0247795 0.0687875 0.0445831 -0.825094 -0.265531 0.497851
-0.0647785 0.0418514 0.0371149 -0.871051 0.393756 0.289305
-0.0651433 0.0405812 0.0321277 -0.915947 0.382749 -0.0919052
-0.0866696 0.11976 0.0483373 -0.505864 -0.104273 0.853229
-0.0834292 0.140971 0.0438617 -0.516446 0.575154 0.634127
-0.0331696 0.0504009 0.0386058 -0.202999 0.640531 0.68211
-0.0695129 0.0348155 0.0108653 -0.513689 -0.708839 0.416609
-0.0672932 0.0434648 0.00894154 -0.553797 0.628428 0.543604
-0.0480547 0.0619255 0.0363335 -0.744619 -0.122009 0.653906
-0.0514492 0.050128 0.0139955 -0.735779 0.217684 0.640908
-0.0862404 0.0997532 0.0261034 -0.83515 0.206955 0.508958
0.039762 0.0397552 0.00221034 0.429296 -0.822997 -0.364234
-0.0248935 0.0638255 0.0416066 -0.804267 -0.181306 0.564747
-0.0760054 0.0992707 0.0369927 -0.549199 0.256604 0.794833
-0.0895977 0.145422 0.028908 -0.853619 0.284005 0.431014
-0.0779708 0.168029 -0.0313763 -0.820307 0.487102 0.291641
-0.0674996 0.0407858 0.0106614 -0.647847 0.41909 0.633304
-0.0704584 0.0782311 0.0390359 -0.455214 -0.415871 0.786913
-0.0647627 0.102901 -0.0170242 -0.512596 0.235275 -0.821202
-0.0521124 0.0558848 0.0264488 -0.994074 -0.0786147 0.0630683
-0.0801541 0.121003 0.0499917 -0.595156 -0.23722 0.760452
-0.066941 0.0372276 0.0327946 -0.968154 0.20529 0.0428673
-0.0774085 0.0915656 0.0375807 -0.730184 0.126307 0.670307
-0.0678128 0.0371833 0.0136193 -0.742952 0.22507 0.621387
-0.081629 0.0763477 0.0227193 -0.775043 -0.573834 0.261394
-0.0826445 0.115094 -0.00187331 -0.541513 -0.348405 -0.76367
-0.0854309 0.0945312 0.02843 -0.802676 0.00276225 0.595361
-0.0339876 0.0430842 0.047364 -0.76729 0.484186 0.414484
-0.0537501 0.0572396 0.0198485 -0.363263 -0.8799 0.304091
-0.0563104 0.0593404 0.0224044 -0.237774 -0.888159 0.388119
-0.0645908 0.0432745 0.0114843 -0.4595 0.694876 0.549899
-0.0623462 0.0416866 0.0423004 -0.772233 0.339259 0.528073
-0.0528408 0.0607176 0.0286272 -0.715867 -0.517266 0.432213
-0.0830367 0.0814332 0.0287677 -0.84121 -0.333604 0.422858
-0.0841204 0.0878155 0.0289483 -0.848017 -0.142079 0.507211
-0.0835234 0.102101 0.0288281 -0.738774 0.272149 0.616553
-0.00201691 0.0346153 0.0432585 -0.00617685 -0.999775 -0.0134789
-0.0216443 0.0706743 0.0510216 -0.796205 -0.267516 0.542237
-0.0122161 0.0597902 0.0539374 -0.347203 -0.395228 0.848674
-0.0861614 0.150279 0.0292363 -0.593932 0.70683 0.378782
-0.0254213 0.0881875 0.0508928 -0.793272 0.324487 0.509602
-0.0321181 0.101025 -0.0225132 -0.139969 0.135547 -0.979406
-0.0670654 0.124081 -0.00895615 -0.0227741 0.0410069 -0.99884
-0.0840547 0.0918114 0.0298727 -0.754758 -0.0955006 0.648998
-0.0286225 0.0960364 -0.0241991 -0.223395 0.290748 -0.929888
-0.0196775 0.0675181 0.0520263 -0.638457 -0.334117 0.687878
-0.0829383 0.145022 0.0401734 -0.496723 0.645092 0.580484
-0.0872787 0.147685 0.0314033 -0.754782 0.527295 0.384
-0.0241643 0.0943618 0.0463169 -0.574789 0.687371 0.442064
-0.0631997 0.150367 -0.0266908 0.86585 -0.474045 -0.14649
-0.0820793 0.105221 0.0291213 -0.725691 0.27818 0.628848
-0.0284908 0.0879822 0.0457325 -0.838806 0.137713 0.522192
-0.0729561 0.0769715 0.0367599 -0.581119 -0.413241 0.700469
-0.0216244 0.0926518 0.0518603 -0.545534 0.559497 0.61947
-0.057499 0.0484472 0.00824205 -0.690082 0.590366 0.407954
-0.0623258 0.0446182 0.0392383 -0.746851 0.547817 0.373638
-0.082183 0.087916 0.0319723 -0.811008 -0.00714386 0.584725
-0.0211486 0.076109 0.0539209 -0.459309 -0.401154 0.791009
-0.0306888 0.158945 -0.01276 0.00213894 -0.626082 -0.776712
-0.0294225 0.081249 0.0441919 -0.882314 -0.158019 0.44156
-0.0203167 0.0627227 0.0482275 -0.833032 -0.200963 0.51376
-0.0639299 0.0389236 0.0159577 -0.515733 0.472986 0.712322
-0.0322974 0.104673 -0.0215796 -0.296976 0.410701 -0.859691
-0.0815843 0.0844698 0.0324308 -0.800129 -0.15087 0.580302
-0.0818134 0.0918009 0.032543 -0.774194 -0.0402859 0.630494
-0.0819966 0.0981267 0.0320372 -0.716717 0.220328 0.660981
-0.0807762 0.10211 0.0317086 -0.672023 0.262412 0.692439
-0.0265387 0.17555 -0.018608 -0.565076 0.138238 -0.812899
-0.0389849 0.0411102 -0.0271298 -0.579149 0.473902 -0.655979
-0.0219207 0.0810235 0.0558385 -0.448148 -0.163692 0.877711
-0.0717656 0.100914 0.0392198 -0.448917 0.39281 0.802309
-0.0873269 0.144067 0.0360638 -0.763772 0.514997 0.384704
-0.0843952 0.149454 0.0330383 -0.49444 0.731266 0.467664
-0.0579603 0.0464044 0.0112149 -0.424558 0.776882 0.456834
-0.0652973 0.0378986 0.026724 -0.859408 0.322169 -0.363588
-0.0261889 0.0743933 0.045552 -0.787177 -0.370645 0.491989
-0.0361706 0.0346303 -0.0307903 -0.219928 -0.296956 -0.81956
-0.0920092 0.121928 0.0431047 -0.848525 0.06136 0.521856
-0.0906421 0.128566 0.0414085 -0.871463 0.35429 0.335676
-0.0880361 0.129147 0.0456109 -0.823084 0.219007 0.521153
-0.0632569 0.0366869 0.0182008 -0.731392 0.289767 0.590387
-0.0591664 0.0444317 0.0136174 -0.356012 0.77283 0.52481
-0.059662 0.138595 -0.0060014 0.321955 0.284061 -0.901475
-0.0337804 0.0345999 0.0280802 0.361069 -0.906722 0.170094
-0.0642251 0.120558 -0.0088251 -0.0214111 0.0664077 -0.992455
-0.0791122 0.104617 0.0324888 -0.711975 0.167341 0.680817
-0.0895612 0.132466 0.041038 -0.899995 0.255866 0.352236
-0.0846332 0.146578 0.0367907 -0.560413 0.645303 0.517244
-0.0568745 0.0372054 0.0467864 -0.161908 -0.227117 0.953995
-0.0605593 0.0416196 0.0163131 -0.463741 0.667145 0.580219
-0.0408116 0.0625138 -0.0130094 0.116508 -0.425004 -0.897318
-0.0798626 0.0960627 0.0346256 -0.653683 0.0785229 0.750933
-0.0793695 0.0997155 0.0339973 -0.662885 0.266412 0.699629
-0.0208336 0.0566656 0.0466015 -0.805515 -0.0719985 0.587557
-0.0151865 0.0991952 0.0455432 -0.27177 0.812438 0.4961
-0.0518386 0.162569 0.00482676 -0.404951 0.760694 0.50457
-0.082985 0.107816 0.0266268 -0.81277 0.0789639 0.556414
-0.0547064 0.0473535 0.0127825 -0.507522 0.624002 0.593368
-0.0533796 0.05168 0.0116576 -0.720947 0.167552 0.670151
0.0283139 0.114294 0.0323709 0.50347 0.572463 0.645311
-0.0340537 0.168311 -0.0152795 -0.41297 0.0506777 -0.909073
-0.0783672 0.0827315 0.0355317 -0.649613 -0.329997 0.683575
-0.0870813 0.137809 0.0425381 -0.766385 0.367363 0.526565
-0.0859137 0.14177 0.04076 -0.644758 0.517143 0.561361
0.013388 0.0389409 0.0444812 0.159387 -0.0883509 0.982779
-0.0604997 0.0390782 0.0192131 -0.575117 0.584992 0.569081
-0.0524743 0.0555982 0.0130332 -0.761971 -0.270484 0.584242
-0.0765623 0.137202 -0.00588203 -0.418094 0.000724225 -0.907865
-0.0358341 0.0975891 -0.022745 -0.175813 0.206837 -0.962169
-0.0892116 0.121565 0.0464752 -0.664702 0.0399985 0.745456
-0.0888647 0.125081 0.0461294 -0.649242 0.199904 0.733631
-0.00721916 0.111548 -0.0209378 -0.0725824 0.607479 -0.7886
0.00653001 0.128116 -0.00375892 0.0870876 0.885263 -0.456298
-0.0236963 0.18439 -0.014866 -0.651853 0.742943 -0.132785
-0.0471355 0.132457 0.0053153 0.810474 0.53658 -0.234606
0.00683026 0.0976978 -0.0251102 0.224327 0.864825 -0.445679
-0.0845721 0.129309 -0.00274373 -0.671407 0.318731 -0.668131
-0.0704452 0.177111 -0.0562006 -0.633978 -0.388026 -0.666752
0.0107282 0.125128 -0.00694098 0.276064 0.760285 -0.587779
-0.0675232 0.16635 -0.0558395 -0.921309 -0.00823185 -0.388114
-0.0680643 0.171186 -0.0559723 -0.844505 -0.199354 -0.496583
-0.069226 0.166756 -0.0521002 -0.907673 -0.119941 -0.401895
-0.0705977 0.17169 -0.0522412 -0.772438 -0.365335 -0.517422
-0.0721518 0.174773 -0.0527143 -0.627348 -0.509028 -0.587815
-0.0693936 0.162029 -0.0507419 -0.959527 -0.00960065 -0.280487
-0.0745054 0.174287 -0.0501963 -0.489719 -0.640941 -0.58631
-0.0703016 0.161362 -0.0473282 -0.96511 -0.0693655 -0.2514
-0.0716744 0.168185 -0.047661 -0.83882 -0.347578 -0.416991
-0.0756625 0.172699 -0.0474703 -0.443329 -0.681993 -0.579679
-0.0899883 0.115755 0.043514 -0.726502 -0.486926 0.47983
-0.071222 0.164914 -0.0460604 -0.911415 -0.235336 -0.335841
-0.0350461 0.0490967 -0.0146565 -0.381429 0.899626 -0.206653
-0.070674 0.157241 -0.0459044 -0.97315 0.120347 -0.191825
-0.0765774 0.17017 -0.0438585 -0.4701 -0.693004 -0.545605
-0.02972 0.1568 -0.0104093 0.173834 -0.793896 -0.579738
-0.0713867 0.159123 -0.0421152 -0.973705 -0.0729382 -0.206748
-0.0729768 0.16569 -0.0422434 -0.81869 -0.423357 -0.383336
-0.0722107 0.162225 -0.0410796 -0.932448 -0.233421 -0.274564
-0.0755118 0.167956 -0.041533 -0.477933 -0.709929 -0.515407
-0.037734 0.0475583 -0.0173419 -0.320443 0.922855 -0.213294
-0.0883542 0.0921477 0.0233977 -0.91181 -0.0826461 0.401248
-0.0727459 0.152287 -0.0386711 -0.96919 0.142896 -0.175573
-0.0720783 0.158313 -0.038629 -0.976072 -0.109673 -0.186164
-0.073432 0.163214 -0.038313 -0.837881 -0.420865 -0.337549
-0.0757105 0.165602 -0.0380584 -0.545544 -0.69806 -0.461143
-0.085455 0.108079 0.0209984 -0.94018 -0.014532 0.31304
-0.0724201 0.149367 -0.0373101 -0.64176 -0.680151 -0.207649
-0.0317837 0.118419 -0.0121395 -0.00490741 0.793775 -0.604366
-0.0278494 0.110806 -0.0183631 -0.101431 0.578532 -0.798815
-0.079 0.167391 -0.0369411 -0.846111 -0.317 -0.169363
-0.00881606 0.118469 -0.0147368 -0.00454372 0.567067 -0.821078
-0.0724694 0.157081 -0.0357209 -0.978749 -0.0957157 -0.178125
-0.0326839 0.121119 -0.00838375 0.211934 0.778907 -0.585932
-0.0279298 0.0712201 -0.0338741 -0.721225 -0.342968 -0.600658
-0.0270268 0.0882766 -0.0345996 -0.60868 0.464635 -0.640633
0.00249424 0.126763 -0.00585797 -0.110928 0.843557 -0.525108
-0.0298574 0.0742555 -0.0331579 -0.765854 -0.32721 -0.55126
-0.0303301 0.0823979 -0.0329613 -0.845519 0.162318 -0.505406
-0.029608 0.0855782 -0.0328135 -0.87004 0.232042 -0.43418
-0.0261297 0.0912024 -0.0327814 -0.58545 0.622444 -0.517364
-0.073233 0.15336 -0.0334841 -0.956169 0.25211 -0.143422
-0.0736646 0.160081 -0.0332508 -0.885445 -0.383626 -0.257849
-0.0259887 0.065315 -0.0322873 -0.695282 -0.322905 -0.637467
-0.0286916 0.0892268 -0.0316954 -0.739531 0.503351 -0.443608
-0.0737385 0.149516 -0.0323759 -0.834491 -0.438525 -0.174664
-0.0764035 0.16254 -0.0320589 -0.554754 -0.730705 -0.39778
-0.0254371 0.0604984 -0.0311601 -0.625977 -0.292198 -0.719636
-0.0844444 0.0832016 0.026288 -0.962263 -0.199101 0.180368
-0.0282497 0.0668171 -0.0301557 -0.766247 -0.289075 -0.564923
-0.0297399 0.0702912 -0.0304498 -0.838687 -0.369102 -0.399815
-0.0323998 0.0774072 -0.0297993 -0.958234 -0.108645 -0.24321
-0.0270501 0.0923013 -0.0296812 -0.629476 0.684357 -0.362505
-0.0732097 0.156403 -0.0307707 -0.982347 -0.0699044 -0.150941
-0.078816 0.16464 -0.0305804 -0.972417 -0.110034 0.0087856
-0.088902 0.0971193 0.020699 -0.982183 0.0966391 0.1575
