ply
format ascii 1.0
element vertex 808
property double x
property double y
property double z
end_header
0.19376547154685303 0.27046712978897747 0.09350100036651886
0.15476854444938415 0.5671613290690015 -0.02254260893125187
0.9819905073136478 0.7151624369768714 -0.1473947629306263
0.24136521143640466 1.0933407186325692 -0.028540689780991703
0.37063338504970433 0.9405520674707858 0.14433140791795449
1.1492369211367 0.49037906320908803 -0.014389599851750867
0.3546714333675838 -0.13217613217479152 -0.01996348691032162
1.0594876674823195 0.3935217678131024 0.1329120862527441
0.7473674108708054 0.00911431419240627 -0.14153048119464612
-0.03649561624547171 0.3661365431239111 -0.14034579450998716
0.11959618589680987 0.1816326633298498 0.14994796194359877
0.3576241007173333 0.16400083028776247 -0.06521728699761872
0.8037999338568166 0.27976942747441835 0.0832580272560792
0.2953599324313582 0.7862884117732297 -0.023843134197767683
0.8257698682590398 0.6797171283330649 0.07829333724979355
0.057042681285474794 0.9520228878073613 0.06959282392343542
1.1105838976441036 0.3172721313187422 -0.06031373926236042
0.756024936804902 0.26096606005547407 0.00892246509845627
0.21531007310334632 0.28438315982220524 0.04568389947488591
0.5901868590701805 0.9342429489551924 -0.1389561610984123
0.13498950276052923 0.7007522554610635 0.12466013526636745
0.7235321380849851 0.21275862828559455 -0.06321283159261015
0.41171857514387356 -0.12889572421282203 -0.06525580717704153
0.5962374803277798 0.9052796253228412 -0.12464334012140643
0.4744054587710083 1.1230766773270304 0.08498536057035812
0.4553400364246596 -0.14255802800955042 -0.041627346784406674
0.11541191338110285 0.3445527649480142 0.12346492895729644
0.951253655398715 0.3132090839092305 -0.14954969338398366
1.0436098930906048 0.15084906479906163 0.03407230364006456
0.2839004889807558 1.0640001714833747 0.10810912344607715
0.24250158665558563 0.22386442300470283 -0.08666015376045438
-0.0607579479599617 0.6151313918131049 0.13134030103734656
0.09535593311179663 0.4763245460216654 -0.11635611132005738
0.808047309214149 0.08242068947360165 -0.1488035060900465
0.5243685283722286 0.9211132859950268 0.12801381858956642
0.6425918197029653 0.07157343597390753 -0.14195392726005873
0.01033810074501973 0.3545506775151601 -0.14961015470011654
0.024856665380979137 0.5362714093846341 0.14815181482231224
0.37000738467507743 0.12601517716143124 -0.10802779084703992
-0.013608582974657168 0.19982618762714394 -0.11616906955590543
0.5011706698163572 0.9376541614369669 -0.1364301712983071
0.43292098487107217 0.862697352847885 -0.07279556629923381
0.9999661727274023 0.21022670622733475 0.12820346529465226
-0.08894560849291988 0.27569726436481046 -0.07446159307317252
0.8164854203748642 0.7998083644052658 0.135635400687438
0.7539910608039957 0.7489026397855907 -0.04066651517908965
1.0537183039385936 0.5881833067779967 -0.1371713103421543
0.1462021137841849 0.6282228744993212 0.08486679359042455
0.1676110045679094 0.3846994548166595 0.023289757872562034
0.641191032172685 1.1028390107442387 -0.09111909251672243
0.19362303427380595 0.23302673916750377 -0.11719459386348474
0.8051072644847393 0.6937254110154155 -0.05739234804114819
0.17701629519982853 0.6409039333519997 -0.02662030065375999
0.7258448559619777 0.7747407573048947 -0.04078811285841394
1.12424555491747 0.5923180526237342 0.07300572687880134
0.9523754880308644 0.5888456649274689 -0.14484600309530848
1.0593677859767907 0.829295822389492 0.016426259256459706
-0.01714089199192148 0.8419250795475461 0.09005646650770091
0.6052828758509468 1.0212101339831858 0.14660405136634516
0.3414720000896765 -0.07489646917685011 0.11496117121428241
0.9228412609564536 0.2956350828464488 -0.1468950050530163
0.9239885051073708 0.9862333187260169 0.03792226789224951
1.039976364215757 0.4496183799805068 -0.14390579279791496
0.05392176185665465 0.49953130784500177 0.13997310510277253
1.0201819821361193 0.5474411113952855 0.14832695927754866
0.5482565104421897 0.9045364532703799 -0.11800879115511638
0.8003920340055732 0.8369864990290219 -0.1419211940196408
0.17246452960226244 0.3343552963039075 -0.06943616802759274
0.7965134823649602 0.7221163530598319 0.07566201554475974
0.0826249588279645 0.5907614739693019 -0.13111019590559278
0.45518526853211805 0.9354574710009892 -0.13647660136319567
0.8898001832354051 0.8275346830776606 -0.1497212989775355
0.47579255076991106 0.9194447966593444 0.1269756712106187
0.7642236893578485 0.06598314754499296 0.14978011866400398
0.9218053825225627 0.010572947520076703 -0.033937552522995344
-0.1166172513636684 0.6946739810947851 -0.03167289262942481
1.0378294761786524 0.1354834677542544 0.009201416421970478
-0.013921285939200168 0.10312488474368514 0.01419812733085349
0.35643923242715714 0.928082891006725 0.141947463494588
0.010664924902874018 0.5791546323394513 -0.14993823190996727
0.6809767668430713 0.19970743993625756 -0.013527219526258625
0.04906797578015737 0.2368478412796215 0.14836298610453266
0.3981118677273551 0.0877841806373118 0.12968431087773946
0.7046484007093785 0.7917571141922344 0.04326518099412678
0.7360656154398205 0.8482431665159393 0.1273331524615565
0.2460345414923843 0.05592897675725084 0.14955359703633872
0.2810673341287677 0.1791699387735154 0.10023967005420156
0.6224462553358552 0.1579155925111837 0.061835426868601856
-0.10839560170103235 0.32808912491743014 -0.07084220827138953
1.0102172807730259 0.44726534067550994 -0.14944121960529475
0.0016450943606288737 0.8188513472633817 -0.11876149892275191
0.07131800408702277 0.5509656937591585 -0.13354866880886
0.11952568518697193 0.6852810058367004 -0.1288418415537765
0.5241164951808495 0.0037709281883809287 -0.1499661768211232
0.909287469634162 0.4738615759829528 -0.12009085126464608
0.24790207166505823 0.7979313205696783 -0.10227877472325228
0.6059949532993923 -0.13502060097042068 0.04265970480406862
0.8953629292384968 0.6655331708211364 -0.13192633501795953
0.5056128096740145 1.0564405748749848 0.13896497878458236
-0.12520767694707036 0.38899312689555854 0.06541247203123621
0.749707682838554 0.8299131789801883 0.12272943999745418
0.7187212723552019 -0.033112033227277404 0.12918257426526283
0.3427431631834432 0.1855844327183076 -0.021502770131178846
0.9103458869043688 0.5331897516515401 0.1212461354988638
0.09827899422397424 0.9194890482140323 -0.12636563187107439
0.0904978919279128 0.34851792288074906 0.1359530536299536
0.6862845235149457 0.8692531298832252 0.122604535857354
0.7581116191722914 0.8637667274570768 -0.13995661339757826
-0.0705962793535736 0.6826370025852186 0.11259046543707883
0.11337459407798095 0.3459105965999223 0.12440909196744529
-0.04346606796935526 0.21540159989379343 0.09809901547442208
0.014366669240484353 0.37098327751936366 -0.14997951542296312
0.5154145435051645 0.11759305493165767 0.09351370838500773
0.5997286028421376 0.11431998541390426 -0.1103194290970351
0.39189142769552154 0.03495486368770073 0.14829465841162726
0.3594509583821801 1.0270314157585334 0.14294845406728765
0.15591243445870445 0.42825500826624485 0.02107353643688844
0.4865428731139137 0.9849897368008625 0.149265739141603
0.9202095353251092 0.9874222750199222 -0.04351337921417756
0.16361000548383975 0.6111696832366791 -0.0355914945381428
0.6428452324689344 -0.0597273694403988 0.1283269002484274
-0.07184628609890831 0.6150277355191179 0.12474379764841835
-0.022819543413398535 0.5583821416309807 0.14771729578838352
0.3894251553818146 0.8334667400700615 0.01986785938886522
0.3247655473621128 -0.034064982468928195 0.13655119572396818
0.4853175955011868 0.1256684954032949 0.08233887036912405
0.7635306388070017 0.7522860095572211 0.06501905597905389
1.0806903441509048 0.7781579598125943 0.04243119753906936
0.13652344852303067 -0.03108742901247652 -0.04348124308036843
0.9823139871070855 0.2333774552670993 -0.14102658468105542
0.30140889586415076 0.7942161993828116 0.03828106790743827
0.5081505078864456 -0.14994880179679504 0.00016934085312515356
0.14360865209090384 0.48267512178968824 -0.04469063894234825
0.5203680331885666 0.14693457372417773 0.032899744813019736
0.14943717036811638 0.5500070503140784 -0.034879297762073914
0.8939299752210642 0.798693734964099 0.14989419531626325
0.23178125305586972 0.7828857012003999 -0.10179419822757137
0.11039440850383292 0.4245358046965927 -0.10890092689397943
0.4729229086248218 1.092577207989417 0.11753551127078345
-0.14841218188040184 0.4839533975231624 0.0203680471910029
0.16512653203806504 0.7689955262065352 -0.1324176740246269
0.08413581768565759 0.474057870239701 0.1247258423003071
-0.14746352149795283 0.552736868888677 -0.010841140042982632
0.7453372296333572 0.00466365377413519 0.14041339300232644
1.0086549751199168 0.8477041657054918 -0.09492934884257416
0.11588009969283025 0.73365646148874 0.14128059898814943
1.0133306583104242 0.1328175904616415 0.0728260453604211
0.5904436628433263 1.0278776546199255 0.14572164691194836
0.5884960262989414 -0.08645308922173 0.11761707863829739
0.05890746054622836 0.9608175749442713 -0.05902367430142497
1.050870809747625 0.16719491690295168 0.0433558405292579
1.0191624050380015 0.8909682508146429 0.005133561800531407
0.6486761301238362 0.18292187416057587 0.007828253083209336
0.12150005032625744 0.14082840061909824 0.14840864926614578
0.6134542422957533 0.020821577291410376 0.149808683344176
0.2939851506816441 0.9427491158855207 0.14954556438683725
0.3818288071096322 1.0602612774758415 -0.13126678194361768
0.7743453197297818 0.7183722544229009 0.013893625652509112
0.9896651759182984 0.7588129190161691 -0.13999844997498073
0.735333880185312 1.0749396428055518 0.08832415866060038
1.0698763315390059 0.19102482106589497 -0.0228628026278532
0.8320272278662983 0.3515440061030992 0.0626390347198054
0.02775928841873665 0.12269061292457883 -0.10764665452214023
0.6465326802004373 0.8373725617126135 -0.07091286369898539
0.7895254894080834 0.8801809781203791 -0.1483590071139
0.7944077713344632 0.22999024289708947 -0.11133264652219324
0.34349590526007323 -0.1251448565127976 -0.04047003656465473
0.3167687879308616 1.047145446315512 0.1287217524181986
0.19817704603401337 -0.07561750349540997 0.00394340256412281
0.8558867371848295 0.6122185044091142 -0.08007250793083776
0.6763738876819096 -0.043970219441820446 0.1316727478171586
0.012213413627851666 0.6709998282741215 0.14904590366550732
0.7748780222489863 0.10772138081516819 0.14852264320397202
0.3952144639679921 0.8339462754608514 0.0002300207317459314
0.1654402442962447 0.9883188203851581 0.11852508399860805
0.07933661944055348 0.7777135980135903 -0.14994488229144437
0.9358437444365992 0.05833937724050575 0.08932550572988153
0.41461815718198897 0.1579763086798876 -0.027379073504173294
0.7385430976055215 0.7805683900784754 0.07174064341840007
0.13546452825950944 1.005255813548145 -0.08580788907879687
0.5297183443821165 0.947724909762097 0.14095867676461207
0.7253411545987568 0.8346604392826826 0.11480042164511872
-0.07441443046886698 0.3499401353474322 -0.1171403213852514
-0.04451992352747325 0.20224166223236567 -0.08917520273100242
0.5913517812167836 0.8379669109982006 -0.005348585851644199
-0.10719019976495126 0.7314608972334017 -0.007531396571774264
0.1455928463772308 -0.04238280750678736 0.024970096249070674
0.7373420457640055 -0.06300957074558722 0.10090001180043534
1.1225515683757008 0.4202336524227005 -0.07878956359307605
0.22848162150636425 0.1748977576506457 0.1290691426103516
0.24285728208396207 0.2574596909470601 0.0321234803643803
0.3318767837611706 1.0949993635854465 -0.0922285798055457
0.6748594762722673 0.1429332125177794 0.10959393960290124
0.3356447995034902 1.124891286171089 -0.033793535245474106
0.5189126026515157 0.9121863316464741 0.12192101688398727
0.7971638278588584 -0.00878867973487818 0.12058604781833708
-0.01685479230508058 0.24729613324546007 -0.1297159998162942
0.2568918757002079 0.22039739097670452 -0.07571572334831488
0.46186777602449663 1.118388652331122 -0.09057943932886196
0.1900015998610456 -0.05435064167093784 0.06509228382785108
0.8456416521636019 0.5553362000446058 -0.0036000311280489305
0.3739939235780745 0.8271381147051796 0.013024278632811572
0.7187612197028911 1.0851080504860078 0.08341660794771366
0.6271265041481189 0.8454341725656063 -0.07140167543666015
0.08581651213411451 0.5764334170952594 0.12762024858009963
0.6447385249115262 1.1311614914638282 -0.02702919458503688
0.44851731509918596 0.1537741541513361 -0.003125903839758006
-0.10269689685071615 0.28649797604936383 -0.05539748977271444
1.0940489535172224 0.29086020972644977 0.07519929295889645
-0.10572449453504074 0.4582524112300669 -0.10495915382882928
0.5772309276363086 0.8458795157254297 -0.03605239823579722
0.9386774589865832 0.28853575277576426 -0.14943435737357358
0.8657907085521739 0.4947857138355088 0.06706593632647369
0.8509232249174388 0.47583051987241876 0.022875550600542246
0.18842067145946584 0.7864126324103701 -0.1288588249401258
0.3844749529957137 0.8437273419742307 0.06022634043902053
0.8601667445622942 0.8450699609039336 0.14999513492098235
1.1340765794704475 0.4312815444873288 -0.059279657464436586
0.8822983752952651 1.0217989126469174 -0.0305373191122913
0.8343047675651999 -0.01895391564029525 -0.09347798844455614
0.8128359238341024 -0.04735269480522286 0.07405417838859282
0.4840204616471693 0.985595153677534 0.1493318583432584
-0.13329242292114762 0.6367936306123881 -0.02502374892287271
0.5758847574350157 0.8554706619991839 0.06214785826846579
0.4680776869538633 1.148419142891904 -0.015428281219509213
0.03681239568663908 0.32866880343192173 -0.14987425859357106
0.2761467172963705 0.9862596435934902 0.14578434800999024
1.0777243963405152 0.507026996149709 -0.12826641591649404
1.0063167491695544 0.3052387567632554 -0.14385803096651237
0.4367060196177119 0.8609587750551585 -0.06832776882868904
1.1412805527101098 0.6058856082033276 -0.003310341924854189
0.01175416647272065 0.6541493482033203 0.14951907155189925
0.9705442427513837 0.43470984195133056 0.1479108256270141
0.8576537710924725 -0.01747651422386909 0.07646747672546424
0.13675230088278084 0.4092036645449116 -0.08203969663306131
1.0510545171141943 0.3513193532318789 0.13226117228606155
0.6751806841606819 0.8060016774175316 -0.027796206749846054
0.573962538881843 0.8652877993940606 0.0793399479527617
0.8819328838209344 0.09943784447939408 0.14014836806116598
0.8675019571300359 0.03304834523888617 -0.11671305434379328
0.5930658653586507 0.16259895651645806 0.0005552741471293272
0.8662450919976152 -0.01904879285053307 0.06485728831498416
0.4146361012444586 -0.11100863326883703 -0.09393805149125999
0.3353916528283907 0.9498925619035999 0.1485313058442579
0.7142143069878265 0.21650096436817584 -0.0396310106280628
0.9022090081868865 0.26345901854035536 0.14623619312649241
0.950765545451135 0.7367875786764653 -0.1497192099565855
0.17071016495734764 -0.040018920713408734 0.07031779352635831
0.23555487668154867 0.7296936897164013 -0.009027763925038975
0.2522172080871453 0.10036181091288654 0.14701415180281932
0.09347142913284062 0.18018952124097048 -0.14900519762265754
0.5223067227375146 -0.14101313141484006 0.050057138717991174
0.9154787540687909 0.9905187041861288 0.045819391154015364
0.9163790875377797 0.4713886936927074 -0.12518300682580719
-0.1386180906091874 0.37889334773415767 -0.00016157180644244505
0.24510460946930757 0.7528447623890735 -0.05125718804718067
0.16115358487620884 0.651005994512909 0.07649571151231238
0.03532500545233075 0.7994859664484169 -0.140390863226212
0.19692767760800245 0.7553068806161041 0.10835714569773841
0.044681584153792586 0.8893071487455559 -0.1126356086804921
0.8853444085753561 0.9392971671480745 -0.12403229608989705
0.1566749828323547 0.6633969702750203 -0.09029850040472302
0.2525027468197979 -0.08086537190942278 0.07235599821875821
0.7122131091079487 0.19870092691249697 -0.07222228181086544
0.7783119241536102 0.040389950742597325 -0.14528654430717677
0.40060305513116884 0.16270970822028102 0.02206119066712533
0.8484803155060816 -0.00564476054087748 0.09737489024180042
0.29024612054521914 0.8682433936140629 0.12919900025913458
0.10284774269507707 0.9688201182124045 -0.09698530158486345
0.0820209906795959 0.5337803945152483 -0.12646841113756463
0.6672414848599271 -0.11865307518961277 -0.05156068170753716
0.6367330198701333 0.9063371754958056 0.13198480833967663
0.5021867419770301 0.149759332256918 0.00861318765511168
0.0023473939498122043 0.6441986897629539 0.14890117237205816
0.5507338639148307 0.034775762327823256 0.14654307413069723
0.20032525771289084 0.7350919670488794 -0.09116772736717395
0.515286993688712 0.8497849433579543 -0.005969626810572636
0.9268984147555778 0.2530873447300488 -0.1498440284042721
0.3816100275558589 0.8424958432400751 0.059672929984105776
0.1405277932979408 1.0360619016093349 -0.03673549536897558
0.8318644319182666 0.3712185925649345 -0.0419163694432425
0.5214775827680247 1.0652934821169604 -0.13484559228508172
0.15825254703546887 0.8659610900166317 -0.14999828002067633
0.5917784902828978 1.064302716905956 -0.13174447519484328
0.22867368870195742 1.0087449800569988 -0.1289813070239722
0.9993516183439464 0.8599606108389756 0.09562473747893194
0.8542727941613851 0.7723084083087146 -0.14026200833231725
-0.012645542373727947 0.15717495326309067 -0.09422400228738385
0.5634498026730248 1.1468836118460015 -0.0019043338445965188
0.7905519286296906 0.8722655928590338 0.14740719560348708
0.9223678697657616 0.9215718799040552 0.11462250216826284
0.8376305067285563 0.3482559533304166 -0.07511552621466319
0.7641483300173171 0.03297633898870256 0.14547896408830166
0.6044416541402854 -0.13635208720787162 -0.03890846936746553
0.5100229046860298 0.9666390987554551 0.1462676308365725
0.17206727172897973 0.13353652023211698 0.14977392069427375
0.10285131866689484 1.0045498074345711 0.048025463215419444
0.7281595829191263 0.9091711119689789 0.146651893251763
0.3106602256113715 1.0980749783011008 0.07929066791683693
0.9512509967804839 0.38341638433563097 0.1461116228694512
0.8932316380541532 0.301774721369956 -0.13763749367937034
0.6402983913433067 -0.08934477985495759 0.10631718597478484
0.8288580674196635 0.8590789457731007 0.14942810513337634
0.5279830570513533 1.031780941910358 0.1464331420245444
0.9103971747151957 0.47087722721367126 -0.12105871013023087
0.5901671155219917 1.1435310358928943 -0.007404556549589148
0.8285011344612849 -0.04358098637103314 -0.06510921014576994
0.5921622864843802 0.14946932657544165 -0.059819243575302466
0.9443318156996909 0.8903749909477234 0.11889199239197587
0.7180113999499682 1.0305565504115597 -0.13070099286817288
0.40178797531525906 0.03309120806974297 -0.14824570753721653
0.835564785605115 0.3000746126571693 0.1026313189261787
0.2099617157023681 0.2806782438624988 -0.06246816258919674
0.6875587635192961 1.0417539371592284 0.13086925222347648
0.8218285844396523 0.7798180555188048 -0.1307382799972408
0.7381422360966391 0.22446245036159224 -0.06367898861322205
0.48501345343015784 0.03251344781198351 -0.14648697758257984
1.1319359351595728 0.45865297568328683 0.06880798010514973
-0.10864533997898462 0.43488778591663974 -0.09964686811454078
0.686371666152809 0.17668185182534774 -0.08011634133881033
0.9859981951358703 0.7903299543071095 0.1346434591880788
0.8326627222677809 0.6437072885153136 -0.05966237502774669
0.23004308196467882 0.27435938621648137 -0.02341387504186146
0.14434920280262542 0.5233462938508365 -0.043401670608110225
0.9873471415479453 0.25331991542138665 0.1427008806453321
-0.09214130249747376 0.30052921583785663 -0.08316246321715919
1.0607952755636452 0.2180382846044568 0.07871127296320586
0.30670891002779777 1.120540054675588 -0.003978378076408232
0.8543876072655493 0.11721704266865213 -0.14843011714938667
0.6221310232949784 -0.03248125030659299 -0.1426729928022894
0.6069478610339172 0.9192515028681907 0.13404349085798775
0.08414712320674056 0.27642384718836177 -0.14739077508438245
0.24233644455059145 0.25814385544424817 -0.031712428905617075
1.1379143810772474 0.4481442695933602 -0.05380333715470678
0.02576273406734414 0.1623560156613617 -0.12550121871755335
0.08457060922298765 0.011095604899218958 0.049584194716166666
-0.034265955583141605 0.5881948214201516 -0.1441459057693054
0.8580069911239225 1.0347891471716446 0.043482841396355214
0.7332152027133314 0.15887142819606526 0.12235504565650968
0.28093994960572066 1.0279430940029157 0.1318156358174018
0.33407587085155716 0.012812546940202896 0.14928117855864706
0.5728916715101511 0.9689650704952097 -0.14783315097026217
0.3442456727750524 0.1551417535549764 -0.08782630284210315
0.8099327526313571 -0.06290454203852669 -0.04656771419148596
0.9224404200211347 0.8585403687188222 -0.13991109205530775
0.6867840491217214 0.8791107106831786 -0.12850428508362566
0.6274172565553634 -0.0017347315238468441 0.14895666993092638
0.2614583777942939 -0.10226725808339387 0.025671231780197083
0.9068402417667467 0.2255887623697666 0.1497135716421266
0.44942383664297864 0.1375486743209478 0.06733558187416881
0.46093017171674144 0.8610581131384258 -0.06145247823789373
0.11795281559361287 0.6811061571387772 0.12860830581169003
0.6216284565581613 0.1679710903453997 -0.032689133276877905
0.1573759746044736 0.05491128295729181 -0.13672744867508904
0.8654212814953648 0.474230168759274 0.06805889371392644
0.3066191987918626 0.20613621253725167 -0.02306620625907933
1.1290221266020948 0.35118653870608524 -0.03273026312485825
0.17225068785837233 0.6599170047858869 0.06472306834057703
1.0457710719652962 0.3034238363522193 0.1268268950435606
0.7546310479599709 0.7402124957378702 0.004088485988639458
0.749522512651052 0.08201015657231653 0.14941832101878016
0.7107261703851229 1.0937970010780877 -0.0746945650179341
0.2645625801436191 -0.07463895082285654 -0.08865132809219854
0.9399920823072367 0.4834144908045691 -0.13760979348745195
0.19622867661899257 0.14378721636654646 0.14657962728758903
-0.08042376360267578 0.7851773184645229 0.03130175685508785
0.008820431729092248 0.8635447842872438 -0.10079986785469672
0.9088546054150269 0.9059044746669758 0.12924750011883412
0.17652610277029002 0.08928155286526124 0.14825631428012073
0.6095924272566728 0.8348525484823544 -0.026338128638753514
0.8764410486675533 0.9299905248418386 -0.1318685640844618
0.947616610133027 0.5266354506959535 -0.14084851768910314
0.4654616507415469 -0.03004571717429605 -0.14672574200374433
0.15310974998034238 0.9917780795157829 -0.11015522801568338
0.9966471373340091 0.2533777566620765 0.13974513296269314
0.5913113870867133 1.0919786545580537 0.1127078054875992
0.28937145904717226 0.10298079591749554 -0.14121905687181177
0.42308002873470263 0.15844161269438017 0.005810274489931586
0.6305590054327097 1.080255070298479 0.11627639906343817
0.38021396120054995 0.1502499200349583 0.07429941265335618
0.5108002307291148 -0.1494086869157092 0.012255679983607303
0.5909970597318717 0.9098115945285478 0.12675491132090777
0.03904768942456788 0.6660289454065503 -0.14966237322758166
1.053508904223031 0.21010679983017305 0.08317416337384417
0.20080866733188907 0.7474927739981743 0.10010289184509592
-0.04161815317779427 0.17409417315027437 -0.07103925631942677
0.02658782845898433 0.16435323023492215 0.12667988385616685
0.4413040069064291 1.1320828291114995 -0.06579018090838072
0.8133872421560153 1.0306266578532957 0.09478209341077827
0.7508525303675213 -0.08856346276831706 0.05438902912166188
0.821925182728279 0.2833399079640782 0.09982807351338854
0.04605091136823147 0.9495980001358519 0.0565998651451332
1.0017542595765594 0.6458023794744694 0.14830153147929553
0.8278275345268272 0.7160714769377604 0.10474509562342017
0.08208828173232174 0.2604386668604893 0.14888014607810082
0.7923003871390654 1.0483711266019735 0.08808863634575156
0.08867124349150757 0.6919202004915179 -0.14274011049874005
0.8519506506435289 0.41120235641342073 0.06103642113271217
0.14795769759436084 0.5745689112830891 -0.053468369428221287
1.1387288808266147 0.41450847686264397 -0.0405149787353851
0.8448745695086699 0.6414924049786142 0.07945376850488033
0.3685518144887986 0.833773636724394 0.050411422602802666
0.8484786065300135 0.6012040154397673 0.0608048975719704
0.826747859207575 0.36173482108797306 -0.03763373917685046
0.4085654194928555 -0.08237237153747601 0.12036857703657108
0.9327324286795147 0.23387187190812075 0.14978559196032562
0.47386730879893874 0.14734352354140923 0.03277026886170409
0.7634025265642732 0.23758100150827777 -0.07789733438934106
0.3024977670208667 0.8704234131772746 -0.12675086321091247
0.2939051673514824 -0.003656124112950354 0.14334258435335934
0.9721019512982743 0.292853887946907 0.14919202048566535
0.3845377985100373 0.8343217790179134 -0.03310358770789133
0.1025625165013993 0.5171029943286717 -0.10980093625788104
0.5825628322026866 1.1427843472110086 -0.024015292749288226
0.23341504952522163 0.04765928103198486 -0.1478931860284612
0.8333842060912124 0.22501450158953834 -0.13378228977981302
0.1555701795144233 0.8835704727007381 -0.149195206770781
0.5370689464697184 1.0619915191420042 -0.13602996475319787
0.20753434417525057 0.24642405771346076 -0.09874624807153658
0.5501833567370494 1.0728868333508106 -0.12985724448189603
0.3727476701239386 0.08552177138910255 0.13448949673973903
0.9012539303427798 0.6910945687922055 -0.1393285809201499
1.0841459244425096 0.657578750990217 0.10709507353452237
0.7989634064312388 0.1327705008126977 0.1476471210726438
0.6511459417479575 0.8271040570179407 -0.05471760503390445
0.26689682978364304 0.13248599592961768 0.13528356728434238
1.0215703704165975 0.46177928569607557 0.14823100033437986
-0.04747933042103614 0.6327196146575622 -0.13597233688739793
0.5444919781542588 0.8514512921099731 -0.03547932425439101
0.1484597575135202 0.5140100057699997 0.023291225795445458
-0.017659184156639585 0.6269001564042042 0.14632800960652725
0.9164842746992665 0.8004789045999443 -0.14938557879652353
0.4589336359992269 0.8531939230659249 0.04050848318911344
0.47982268019338326 0.07795965361817386 0.1284415098186578
1.0272077039433518 0.7790350598334128 -0.11484055107979728
0.7566834812529404 -0.06362835535980738 -0.09089316858142481
0.7775539359587407 0.7991449414441942 -0.11853057205345838
0.5004560101663742 0.8568154229797376 -0.0447019054254928
0.23752877101116115 0.06477109670911918 0.1497731004390944
0.06278351492053008 0.8229624142751295 0.14353426571533592
0.5293870388118519 0.05031998343555161 0.141645735395425
0.7514630416957885 0.07587942261667602 -0.14983954529878232
0.1553656119341228 0.2597256698050995 -0.1269642006349816
0.02521495598060408 0.5528882205112025 -0.14833636230234362
0.9122495967022913 0.019136615573902616 -0.06861384136756836
0.15809518839934739 0.574926586928649 -0.0023506072399235604
0.3233996856623803 0.013605400566170378 0.14898007641946848
0.7376570603000937 1.1048701995639982 -0.005905374822543413
-0.1334333692334202 0.5172433009467635 -0.06806511110883211
0.8453178985998131 0.5651552559764224 0.02052548073912749
1.016606563617235 0.24145518589865989 -0.12831208588072807
0.8497863156540442 0.3743657375824547 0.07765292417761345
0.28112612037455253 0.17730224598758543 -0.10189681459707284
0.9493773023805693 0.24732587161936187 0.14919258529116122
0.07822154508908019 0.9616803521857769 0.08240598799776831
0.5709639411228312 1.1452038922664614 0.016455006036217776
0.3940379022886525 -0.02261068545376521 0.1462695828958611
0.08862193907554006 0.8558775590030314 0.1434171074239061
0.5088100007869603 0.03565475166018567 -0.14572127819141314
0.7709623231331595 0.2670487321134974 -0.04632631500351161
0.9503763444489683 0.3433866053834373 0.14819966041189034
-0.09003684324564809 0.6649005068816786 -0.09904938577159589
0.09658252827061065 0.6480364032356127 -0.13251758547522813
0.3940422962998805 1.1372948738438762 0.03422556646627434
0.6888004280192439 0.8317919345322886 -0.09228461533369575
0.4154932728966405 0.054390294449986165 0.14262742105844936
0.14808493416829044 0.47206269901384185 0.029958970307904703
1.115459948402991 0.6899072822899859 0.041680003824999895
0.26289142161165846 0.24185752407161842 -0.012371831275518339
0.34122887448893197 0.014049274702191916 0.14957901351083305
0.15295778703427154 -0.006231966575322212 -0.09776105217393725
0.8092165935246586 0.28016696909775674 0.0891892323647038
1.086628350440265 0.24372079674555347 -0.05341943537323662
0.8721941212368198 0.8565533753917759 -0.1492052069195276
0.3654527318361378 1.025879979050713 -0.14375852421179783
0.3729914176429698 0.16792872293515188 0.04035836809427757
1.0505808370472813 0.6733396319493771 0.1285950073368992
0.4765455574159304 -0.13678951775062842 -0.060583095518305506
-0.10468367958003988 0.7294854323666522 -0.03098094606074569
1.0810080517305733 0.22461933017888047 -0.045396183658331195
0.5231054234112151 0.9135816830164643 0.12305658209451513
0.7763187201357518 0.7182832681842767 -0.02522256491715867
0.35067324978521286 0.8923212836300844 0.12674621275978212
-0.14615340093078077 0.4769473237011241 -0.031919420962553145
0.9461444308058753 0.6191707455416159 0.14505070691555078
0.866702513104122 -0.03555002730686396 -0.016727571645967537
0.0836905149339991 0.0032203348576215207 -0.02346036610670185
0.44278034462445154 0.05940714738613373 0.1392720905858132
0.18669468607865047 0.3413362430307067 0.018856835865734483
1.1060287508941475 0.6656053278748095 0.07779694303159425
0.5776475818118756 0.9676302396566457 0.14773526861485056
0.8378642432084924 1.048590726415588 0.041007850221289714
0.6179959845747267 -0.13883671341739467 0.010349751746762443
1.1213129675939444 0.5676212423554722 0.08294282678869995
0.21679771171033319 0.7972631981404068 0.1204264957214739
0.9293425081962765 0.8610548185758365 -0.13704657788524383
0.4705576221223314 1.064511478640115 0.13505067581276645
0.2796078931212981 1.1110523309426124 0.011181586846077871
0.5345252351968446 0.8502877231499606 -0.024322353103983615
0.31961292978861444 0.1283044292505392 0.12230271478750383
0.40379709306084743 0.8368630155299028 -0.009956886494268366
0.20766214747956485 0.2995409931355657 -0.03632465443691435
0.5311233297192687 0.12340693445673095 -0.08709743780931824
-0.12542659075962226 0.6258993274256857 -0.058851990065197445
1.0396127110815274 0.23456285372339447 0.11056818397563468
0.03194184328413224 0.14454406651969537 0.12166892296835699
0.395258148684253 -0.1414491616804705 -0.004079233616541802
-0.06460596867208634 0.34924882618918773 0.12401279571862829
0.7739431286855039 0.7365915715268936 0.058711203863223524
-0.002071410271603069 0.44912405614599726 0.14992813979690447
0.45042433919521213 1.1413274335764272 -0.04452073990603512
0.8546260762313584 0.6026870234166921 -0.0734153583459326
0.19123827744289584 0.12502727183331275 0.1493201446676645
0.025942111062105422 0.35646218976631744 0.149926724531535
0.8819905954574855 0.4657545925443261 -0.09451459506518613
0.7827698794906208 0.2848301416098381 -0.03961765376237135
0.9797334960418349 0.09722030720207903 -0.08076690291520323
0.017446550023797136 0.07485231797512981 0.04489478739353231
0.5222684114654 1.0258597545899462 -0.1476708377898748
1.0652981425731336 0.6545928307697138 -0.12285954548794029
0.2192512498425085 0.7445196090462052 -0.07869902538581107
0.9693929095276637 0.49678479203586295 -0.14684645025188958
0.8329818376684099 0.9008377677737539 0.1485081960700901
0.9865735178852536 0.5142538284461025 -0.14941650214272542
0.663875071276653 -0.01660615826891032 0.14400727287600565
0.4313613530552073 0.0887192163748678 -0.12492338857737445
0.14350771036739385 0.4573033185657242 0.051286383682698514
1.1485863628397672 0.45780189288998163 0.0035640421186225084
0.27358945909651866 1.0786039006047323 0.0882063010084055
0.9339599115695851 0.5625322225016594 0.13678679088929316
0.3862916498483132 0.8328473441989726 -0.022743149691234837
0.04028947911607428 0.4465449510814294 -0.1453160416260342
0.6907029611130302 0.1438907621836783 0.11522056240642661
0.7456206819244013 0.8094206864555897 0.10717807010490572
0.6280988905589127 -0.1368900008720676 -0.010318543783460903
0.7305882931378482 0.13541798409282374 -0.13338538866367772
1.136287205688454 0.43985980750636655 -0.056078353966556964
-0.0026637007860217388 0.15292265122650833 0.10105962094422674
0.15357972056912766 0.584212468475978 0.043707736520111846
0.1106078777679011 0.5410290406510226 0.10362480490619784
0.3739915268420967 0.12719276055186518 -0.10565730456572629
0.19248595765590543 0.15114185234099864 -0.145870322845191
0.46054949105755244 0.0024283692502379273 0.14999749503627846
0.1924879869217906 0.28435055600017034 0.08379921541507773
0.13784779743814696 0.47139756202101135 0.061705965060592734
-0.02910277124042049 0.7434092260216408 -0.125335961727954
0.24567607209345782 0.7405097876239954 0.003313206342715431
0.9912400524959996 0.2902532631106871 0.1460621252429028
0.8461737633569696 0.9859348775875201 -0.11472741726139438
-0.04302756900201177 0.3716547717968087 -0.13833765063428544
0.8070342676450686 0.1258068931883931 0.14914804702779383
1.0342654456291391 0.3935002738407531 0.14316088324058823
0.23519837980871428 0.2551341770759008 -0.055549343821604216
-0.11542142492741736 0.6601300405584296 0.06346412871186326
0.5275106116805106 0.12614985993472044 0.08270567027214794
0.8885144673542689 0.7721214936087997 -0.14778803304285693
0.8404920373528928 0.6101739739817819 -0.047957636513895334
0.40876927639445787 0.877192352559101 -0.09985652881732766
0.15141077796372948 0.18813832793068958 -0.1464878901854059
0.509086707023314 0.04912352987229318 -0.14175988652005989
-0.00025353143505935094 0.6754041399068453 -0.14694619302030562
0.17394616635933996 0.9256408985448126 0.14557310249510463
0.007247792702611222 0.35606783026829447 0.14940535428783489
0.7075535542371412 1.0619194180443325 -0.11266716796956555
0.8507721342526057 0.44111975041361184 -0.04088545661633434
0.8493141257784977 0.5219417074096583 -0.0008775706272213883
0.2207861200588227 1.0861919502050732 -0.014546534683569664
-0.011328961898980583 0.5506434814533778 -0.1493610041178917
0.39828889020703456 1.1334484581303452 0.04959973946218975
0.2284903073376779 0.20231706887740453 -0.11433551317920534
0.3489944291341443 1.0790573101531789 -0.11319416504806465
0.8680521243805748 0.5337315754144828 -0.07412447424038818
0.6114602913308161 -0.114835825826763 0.08313053487203641
-0.02206314158787759 0.857743497295185 -0.06960118582035889
0.9013176491321634 0.579359427904305 -0.11931128263295147
0.4254565029969335 -0.07271657900866446 -0.1283993727834503
0.9983530912942573 0.9148981810074672 0.021460652167768997
0.5339218218290521 0.08263418639083603 -0.1260838891380484
0.9596124934509321 0.06256824348651485 -0.06640605108826364
0.5060931686296097 0.1295602915743015 0.07567768774891093
0.855806605094608 0.4635389763830631 0.04735122278164956
1.1391426066858061 0.4967902003441598 0.05600974924920765
-0.10123303133599082 0.40349563295038465 -0.10312382057243244
0.735510734864048 0.8039872476854372 -0.09575881918103925
1.093636326045279 0.48630696467940215 -0.11705828693202387
-0.14080431101157875 0.5623414030265738 0.042579717928393074
0.37258065675120144 1.0940669484902665 0.10453199561641473
0.865091213530299 0.8147408253168575 0.14891976451793645
0.9211297479688418 0.0900270954440694 0.12166850069512794
0.10428055163164113 0.2770598126181684 -0.14283632485014044
1.0795885171771604 0.6883585803765391 -0.10259451973261711
0.9383465526509546 0.5805655312399286 -0.1398223636758348
0.9353328102752667 0.14856712278573453 0.13770233350909816
0.9091112911190649 0.30806467047461505 -0.14207792059687513
0.27392924352668485 -0.10941716578031835 -0.0007938860344861253
0.8352799769786103 0.35371359199314517 -0.06701763780670217
-0.057595120789925236 0.8207800729195229 -0.04438659640523702
0.09124066163272548 0.03870380489895703 0.09468033719619265
0.20278835255912608 0.28640348084486034 -0.06741527102530981
1.1093863355278493 0.6925732925093698 0.056159941922769484
0.5229130286645464 1.020184761376356 -0.14856634543485026
0.9694496548052871 0.18471859434488286 0.13494561248060027
0.15845206171697757 0.7428474444149222 0.12630244160768128
1.0117170509646263 0.2562847890291873 0.13430946445569814
0.1257045357388748 1.0136401544162899 -0.06423631431540525
0.9706691659762667 0.5790204163392259 0.1482657396305594
0.024822284401231465 0.2503070501661336 -0.14541907213663854
0.07042367167434083 0.2859568504099722 0.14865371179203693
-0.10417234775912909 0.5239336498109747 0.10746706320069087
1.1177765152488246 0.6522245453932378 -0.06272668556082737
0.2783591462233534 0.07151806510764125 0.14896531764082901
0.46627506229951166 0.8617703507600223 -0.06183643299789265
-0.06454867655041252 0.801712482579473 -0.05355495544079415
0.4167594590699169 0.9400005198205335 0.14062608856867603
0.2558996127182452 0.755769672771536 -0.03247591121721168
0.785219182770148 0.2674279759966275 -0.07128563073215567
0.27041214253104995 0.7775071072742994 -0.05428563808103214
0.2157875551007628 0.7519679750277619 -0.0897618637434537
0.9580771455674874 0.467638736079211 -0.14434990538542183
0.08831267309705271 0.20965085177680126 -0.14995249458081597
0.7519269069029776 0.9201126361461889 0.14965680458379427
0.2273310550172366 1.008572762045152 -0.12869437402397832
0.9879850618935367 0.33433925392337616 -0.14921379358960868
0.08223976531983446 0.8609670164118675 0.14065911597376513
0.7087133416613686 0.019848287223480476 0.14813943758815926
0.8590753551833958 0.7691217265701626 -0.14096712392497251
0.8323319630588952 -0.03686437736699755 -0.07234388467162058
1.1432031858492437 0.41076768977399253 -0.013805562362622469
0.5030726258102297 0.8985494620707419 -0.11049973478025774
0.6779293132485711 0.19810338640903458 0.011335015155215726
0.22697254659235527 -0.08057268357625924 -0.04958520721390509
-0.08865212152466184 0.4795902077082415 -0.1207392248161656
0.5521173128467279 1.111685832827849 0.09760284106977289
0.07511123714953744 0.34863191298410273 -0.14178693376170398
-0.0448899196415804 0.793117796299655 -0.09167281984435971
0.11829832297301823 0.27825224323636466 -0.13809630336293388
0.15113932094581034 0.9818142876100716 -0.11620291456383841
1.0582041745109971 0.4872294154875565 0.1381855626532648
1.121930634071765 0.44401068180835074 0.08374515384153276
0.13990581785455303 0.4124973888812701 -0.07582027474601939
1.0521772823227562 0.37962833430266574 -0.1351151503231583
0.5657975548461622 -0.02139669313387471 0.14781109417125152
0.20987017323359264 -0.015315792386693006 0.11895549503684247
0.6339781160985332 0.1522425584236889 -0.07929632035315912
-0.11471653773936175 0.707165358292294 -0.019808738191954296
1.034428931698196 0.615897618263196 -0.1424953993675516
-0.05955763803271019 0.17309724108280317 -0.02410158589361067
0.7874738094305371 0.7096299764904703 -0.0412702107343548
0.08349329756999829 0.68995794176956 -0.14393543445353896
0.6025605508143934 0.9633988126915667 -0.14783599104409872
0.11473866856826659 0.9142050298844165 0.1348567469368433
0.570231227399401 0.1560304026259231 0.017853206393013157
0.49882029087684304 0.14956998985205222 -0.01137594563381517
-0.14890450085738394 0.4828657470780428 0.01612580631351039
1.1173007451958257 0.3467411416970559 0.06318840782527102
0.17494790422861828 0.02458815132684994 -0.1293726454130338
1.0202974978927082 0.536803528860389 0.14843701217728214
0.19124516030093858 0.07765043394356108 0.1481994224234088
0.17804860077166068 0.30054330755819036 -0.08827995821245584
0.9201305472351239 0.42755726231239677 0.13066289822806876
0.6674668371402673 0.1904862653925944 0.023889695936058022
0.8499518956468232 0.4885696784769259 0.006444850430311363
0.8331788159267558 0.33236224452946284 -0.07977915781203383
0.7433001125751002 0.24632628100609838 -0.021090610822072205
0.6146678516731894 1.013852110995042 0.14764223712912947
0.5190266502504944 0.9820338315417007 0.14896497393998903
0.9136685936594793 0.5601328776846991 -0.1256132199768558
0.8903746800740688 0.5662732033665546 0.10805430448772356
0.29787656120217754 0.16958662330284208 0.09902603780817358
0.08940604957085141 0.5523719158670357 -0.1228426871642253
0.1491905167122441 0.4691850762599562 -0.02536558908851709
0.3519423540439457 1.0686668041482164 0.12174514464755641
0.8937196454308787 0.9364085020192934 -0.1216442681679208
0.1770769900943051 0.8664651613937024 0.14955407731435072
0.7173172605218594 -0.11245085211724759 -0.006392906545021482
0.3730778922748442 0.8594696318553384 -0.0916023155167253
0.28579791231768625 0.21347298138829274 0.047571320524934166
0.3166189991785929 0.1362876810106881 -0.11794789275637425
0.12698721611762742 0.4247747517299131 -0.0906924891801096
0.49740293370548083 0.9972592776778677 -0.14997508316273409
0.6208343131377823 0.8550207155162323 0.08294704724071379
0.5077730166477664 0.8506861345055026 0.015201457505627416
0.6860718718589608 0.8112498869420874 0.0602411567643266
0.3160442840577832 0.20219414114184453 0.0034659353712529553
0.25955335701371046 0.8138288689025859 -0.10746525510570971
0.8965231535786103 0.5906715605667936 -0.11749851166942424
-0.03504612910789373 0.13203757437361968 -0.013822517227127485
1.143519818369621 0.42197781979868565 0.02296000443574449
0.14559646386985986 0.38045261401160013 0.08142405112141342
-0.06476154293853542 0.608573731736385 0.12984409038574554
0.7690954944378452 -0.09154802382568383 -0.0060479008992902344
0.01508506822695077 0.5417515051242542 0.14941000668895169
1.001521080685829 0.8608093186795233 -0.0928302467255362
0.8662300250769388 0.022148520566347363 0.1099336779250546
1.0963287061617604 0.7358919374453395 0.05036984169562845
0.2794240124521571 0.9421271867691099 -0.14988373866567922
-0.0867154581537195 0.28701507503159734 -0.0841423640833792
0.48750431118803716 1.0556135012172723 -0.1392533369056491
1.10562522385825 0.3929182403320543 0.09628406558569086
0.753525680339042 -0.08862413713075579 0.05144906547707257
0.9863352081024415 0.6511291837971347 0.14971291617330174
0.7210480913843955 0.1358655587289861 0.13046283472718923
1.0413493981155657 0.4517425884333995 0.14355519584809068
-0.13019152813457024 0.37159060603901256 0.04484034602881828
1.0800257524501031 0.4180611394828985 -0.12304863016719343
0.4680074482281455 1.1290630584395658 0.07504803951135854
0.15308976384969775 0.5483346930346207 -0.008849381659812274
0.1262100364096203 0.2932061506000878 -0.13113819905522522
0.878351872713594 0.07324340976129234 0.132492661822137
0.7599942739027188 0.22485468615057397 0.08803689806244068
0.10109088894916363 -0.011976502092779229 -0.016973881602371284
0.20893971496899633 0.25803114206706274 -0.08796953128888071
0.15952493353594077 1.0483363467142637 -0.036694405197565554
-0.06184639224742072 0.4841679294119577 -0.13655544002562542
0.03701027198879603 0.24954050608125333 -0.14765980081463312
0.8913797852177094 0.5531660255035675 -0.10709630989255346
0.6852202248229718 0.13951848390266314 0.11631203764456172
0.8475830466975274 0.19481675584055208 -0.14524929807545467
0.6648287272580629 0.1784365582562213 -0.057230306500248095
0.6074916977239659 0.8349631394206574 0.02309094283612972
1.145060633711743 0.5618293679055657 -0.02430954740196957
0.8614838807666556 0.3657610598864578 -0.09702385095414284
0.305028407133066 0.1767143662652827 0.08660630524912642
0.4690284769227806 0.13971143088633164 -0.057881211972709096
0.9388519288290329 0.3716645022825376 0.1437737461890419
0.8965463420362977 0.4194060610230649 0.11579735870799146
0.5962562054116876 0.8390892158549097 -0.02719882320154034
0.9026419052473442 0.7739728206474823 -0.14943673058595228
0.8091003665948331 -0.03612537089069201 0.09151522891045419
1.0913556133910847 0.6591904234349537 -0.09932036258423195
0.5245550162268034 -0.11471097954123266 -0.09606601709573834
1.0244806272388887 0.32263344273851524 -0.1400737655667947
1.0281485230563778 0.542126663344577 0.14700480870726967
0.8843975689491299 0.4014655551729842 0.10888083232975143
0.6177960902538681 0.16185756165933834 0.0485459421634496
-0.10286437148297811 0.2644099652287733 0.028528918756616263
0.39895048042714143 0.16420185067192106 -0.014190948275806971
0.29409510217480916 0.1444966732203044 -0.12061637655067847
0.5568548886263425 0.1467393872588575 -0.04776010267641789
0.9606112626348648 0.13648458929186325 -0.12235157878037145
0.4331525523011296 -0.08638584393551219 0.1198619161366947
0.14868913978719528 0.23081216834534946 -0.1385767235273743
-0.11015591346575704 0.6962353695266815 0.051353005986149475
0.8349076658162287 0.6762606287918381 -0.08790734647816824
0.04258896120920963 0.3596549131064807 0.14844501240377075
0.27166865759514247 1.0834998265120364 0.0804769742682157
0.1130631331701728 0.2789430604576287 -0.13979960311219894
0.4998074259565025 -0.12953257927640516 -0.0756392971638623
-0.046062154755346696 0.4163199870312021 0.14053611871601535
0.870949185951669 0.7934892205165684 -0.1475519682114113
0.6727320063826259 0.9654251567130996 -0.1499578502475995
0.21681110598414338 1.0123416471919364 -0.12331793728177766
0.9577093250848372 0.8125213671071784 -0.139855088619911
0.732337421556345 0.8378143635729824 0.11999928812593566
0.5058045595228176 0.9549449210436294 -0.14308520224626184
0.07168637624570168 0.7438759214738779 0.14983079468691696
0.2799235254387593 0.8817615736922286 0.1377606592346011
0.6961553978382398 0.861079857368874 -0.12068484168390126
0.6983402835758581 0.15760024657628924 0.10780062483636152
-0.0073757524321518275 0.6519606296836088 0.1470417141632873
0.8806405388528293 0.617543246765752 0.1103295651895553
0.2873951682647262 -0.05909561262751417 0.11342710637595978
-0.04715158236878636 0.16534905881272755 -0.05012165277714931
0.7321556074048388 0.02586249878791913 -0.14737812335997866
-0.0811859369604212 0.4667900214694721 -0.1255149622809048
1.018794165661339 0.8536723744020234 -0.07840321414083105
0.9475781903468729 0.1480726838344652 0.13299693146409336
0.3913115309338853 0.1529365749034567 0.06259397176130861
0.807845113403349 0.32714568131704824 0.030115041285585172
-0.08992038455016205 0.7127616500578005 -0.07963481957742578
0.7611960513908546 0.8864031506301331 -0.1461888181094708
0.280659347731251 1.1118703285530267 -0.0010052853674942237
0.9911191639305934 0.6397804592341587 0.14962331376242624
0.21974265229944379 0.7138132313774066 0.02730266993260998
0.4163862869468013 1.1205328982446594 0.08116953033348277
0.5169101678789676 1.1428375223698664 -0.04509839513969747
0.44897575869537243 1.0243161901804871 0.1475877071576366
0.06899083995110916 0.055895505766519915 -0.09148978115728947
0.5745312090751304 -0.0074262445090691465 0.1494468018782628
0.5247058749067517 -0.14004903278844216 -0.05246459495413815
0.9717010656400425 0.38191119201642526 -0.14936920024677833
0.6092606916176705 0.15941077032550716 -0.04739815561638712
0.20254277608484983 0.3120300076661453 -0.023620605232539883
0.037733773922614344 0.048943257212393676 0.03497505974363405
0.9076200842588564 0.3847335759011647 0.12908785819779717
0.8313254802805278 0.1566083615930055 0.14825297077863875
0.1367588617259078 0.5830015299723842 -0.07918418598097128
1.1145097541009017 0.3512329043441057 -0.0707604816375443
0.43009448793079585 0.14209397647502497 0.06469566349480482
0.6258829934800703 1.1330132091218652 -0.03682853914202905
0.30754444202949593 0.9894574771357719 0.1477408843085995
-0.04290596358017018 0.6258620326313882 -0.13862255110428293
0.33610804414660284 1.0708490326156777 -0.11696536065281482
0.230843405983634 0.2078257302569514 -0.1092856177827709
0.978237182106062 0.6788861474637722 0.14962508836140612
0.16079303696397623 0.5863756787542398 0.003078844192778261
0.09948035794643234 1.0014430556585552 -0.04901987774109593
0.4338355746489334 0.8460111634066849 -0.026055897204363264
0.8855377237108204 0.7212540871499304 0.139360343043121
0.12538175429567322 -0.031188449668783758 1.4601527921461835e-05
1.1232862018589755 0.6441192236819904 0.05454525459443929
0.7765766336036746 -0.08815454275576873 0.004285586266564766
0.7743043200433561 0.8821707593237043 -0.14705499923384227
0.5115143774260821 0.12325789784242402 0.08573695673536963
0.7026737402111897 0.8141385099039582 -0.08114658935270687
-0.023230495406813767 0.3004143406605415 0.13747548344650887
0.4513131312457734 0.9496641211495856 -0.14221099007688187
0.9126083490819834 0.9979395946002096 -0.031404339433885646
