ply
format ascii 1.0
comment Created by Open3D
element vertex 836
property double x
property double y
property double z
property double nx
property double ny
property double nz
end_header
-0.349143 -0.591653 0.722556 -0.339941 -0.554734 0.759415
-0.232163 -0.659037 0.713285 -0.248977 -0.601082 0.759415
-0.149943 -0.617483 0.76665 -0.151881 -0.632631 0.759415
-0.0888302 -0.639209 0.759126 -0.051046 -0.648601 0.759415
-0.000699573 -0.608957 0.790888 -0.051046 -0.648601 0.759415
0.0891554 -0.620836 0.774796 0.051046 -0.648601 0.759415
0.120599 -0.602152 0.78529 0.151881 -0.632631 0.759415
0.230477 -0.585954 0.771683 0.248977 -0.601082 0.759415
0.328776 -0.556388 0.757433 0.339941 -0.554734 0.759415
0.33789 -0.566243 0.746155 0.339941 -0.554734 0.759415
0.486535 -0.486647 0.723298 0.422535 -0.494725 0.759415
0.486133 -0.448924 0.744559 0.494725 -0.422535 0.759415
0.538264 -0.33411 0.768285 0.554734 -0.339941 0.759415
0.541668 -0.313853 0.774866 0.554734 -0.339941 0.759415
0.621429 -0.302143 0.720108 0.601082 -0.248977 0.759415
0.663176 -0.153943 0.727786 0.632631 -0.151881 0.759415
0.590698 -0.0191432 0.805242 0.648601 -0.051046 0.759415
0.77305 0.0353537 0.626639 0.759048 0.0597384 0.648288
0.772888 0.10745 0.620186 0.759048 0.0597384 0.648288
0.717815 0.152512 0.673449 0.740358 0.177744 0.648288
0.701351 0.271233 0.652103 0.703437 0.291373 0.648288
0.713406 0.284143 0.63322 0.703437 0.291373 0.648288
0.645862 0.341738 0.678545 0.649196 0.397828 0.648288
0.571568 0.4698 0.666226 0.578969 0.494487 0.648288
0.536784 0.506855 0.669027 0.578969 0.494487 0.648288
0.487835 0.513695 0.704155 0.494487 0.578969 0.648288
0.381856 0.603817 0.69603 0.397828 0.649196 0.648288
0.448172 0.656865 0.602213 0.397828 0.649196 0.648288
0.33328 0.674573 0.653272 0.291373 0.703437 0.648288
0.194095 0.694856 0.688267 0.177744 0.740358 0.648288
0.119267 0.707511 0.694331 0.177744 0.740358 0.648288
0.0548905 0.714764 0.693084 0.0597384 0.759048 0.648288
-0.0176183 0.739288 0.667804 -0.0597384 0.759048 0.648288
-0.0780867 0.768838 0.627634 -0.0597384 0.759048 0.648288
-0.166404 0.741597 0.642481 -0.177744 0.740358 0.648288
-0.258051 0.696261 0.66355 -0.291373 0.703437 0.648288
-0.344123 0.729802 0.588471 -0.291373 0.703437 0.648288
-0.403949 0.698314 0.587844 -0.397828 0.649196 0.648288
-0.465441 0.60747 0.637488 -0.494487 0.578969 0.648288
-0.495697 0.59376 0.626654 -0.494487 0.578969 0.648288
-0.602996 0.471983 0.636494 -0.578969 0.494487 0.648288
-0.583176 0.406752 0.701422 -0.649196 0.397828 0.648288
-0.663798 0.423135 0.610634 -0.649196 0.397828 0.648288
-0.724791 0.298193 0.614551 -0.703437 0.291373 0.648288
-0.74987 0.238751 0.613197 -0.740358 0.177744 0.648288
-0.781398 0.139997 0.604267 -0.740358 0.177744 0.648288
-0.787189 0.00889413 0.612523 -0.759048 0.0597384 0.648288
-0.765245 -0.0417832 0.635185 -0.759048 -0.0597384 0.648288
-0.736864 -0.0925773 0.663735 -0.759048 -0.0597384 0.648288
-0.757956 -0.189295 0.617522 -0.740358 -0.177744 0.648288
-0.726063 -0.241471 0.638665 -0.703437 -0.291373 0.648288
-0.713917 -0.290863 0.629645 -0.703437 -0.291373 0.648288
-0.65962 -0.40824 0.623958 -0.649196 -0.397828 0.648288
-0.570265 -0.450301 0.682263 -0.578969 -0.494487 0.648288
-0.605064 -0.524072 0.594915 -0.578969 -0.494487 0.648288
-0.451183 -0.576814 0.675741 -0.494487 -0.578969 0.648288
-0.336339 -0.628015 0.699731 -0.397828 -0.649196 0.648288
-0.405137 -0.648226 0.637273 -0.397828 -0.649196 0.648288
-0.255926 -0.730683 0.627156 -0.291373 -0.703437 0.648288
-0.193218 -0.737624 0.639666 -0.177744 -0.740358 0.648288
-0.233601 -0.764446 0.597963 -0.177744 -0.740358 0.648288
-0.0214785 -0.73388 0.67378 -0.0597384 -0.759048 0.648288
0.0712536 -0.735807 0.666937 0.0597384 -0.759048 0.648288
0.0743254 -0.749763 0.650314 0.0597384 -0.759048 0.648288
0.211756 -0.747383 0.623439 0.177744 -0.740358 0.648288
0.25186 -0.69532 0.667354 0.291373 -0.703437 0.648288
0.302434 -0.696522 0.643319 0.291373 -0.703437 0.648288
0.422611 -0.59398 0.680872 0.397828 -0.649196 0.648288
0.474487 -0.584746 0.650883 0.494487 -0.578969 0.648288
0.526384 -0.598157 0.59932 0.494487 -0.578969 0.648288
0.57372 -0.497691 0.643031 0.578969 -0.494487 0.648288
0.613192 -0.422374 0.661779 0.649196 -0.397828 0.648288
0.671843 -0.410262 0.610477 0.649196 -0.397828 0.648288
0.710522 -0.245788 0.653588 0.703437 -0.291373 0.648288
0.715027 -0.174921 0.670489 0.740358 -0.177744 0.648288
0.759712 -0.214273 0.608668 0.740358 -0.177744 0.648288
0.79899 -0.124364 0.588065 0.759048 -0.0597384 0.648288
0.827013 0.0178526 0.556125 0.850727 0.0669537 0.521326
0.862522 0.0778609 0.490474 0.850727 0.0669537 0.521326
0.786592 0.21305 0.574574 0.829779 0.199212 0.521326
0.835302 0.283761 0.467005 0.7884 0.326566 0.521326
0.793237 0.318825 0.508655 0.7884 0.326566 0.521326
0.78227 0.401374 0.472892 0.727607 0.445878 0.521326
0.710929 0.496641 0.490983 0.727607 0.445878 0.521326
0.606265 0.534659 0.584973 0.648898 0.554211 0.521326
0.591517 0.623156 0.503505 0.554211 0.648898 0.521326
0.596713 0.643495 0.472665 0.554211 0.648898 0.521326
0.506112 0.710314 0.48374 0.445878 0.727607 0.521326
0.393227 0.769343 0.497902 0.445878 0.727607 0.521326
0.364963 0.744394 0.55362 0.326566 0.7884 0.521326
0.141122 0.795792 0.587417 0.199212 0.829779 0.521326
0.164025 0.829359 0.525237 0.199212 0.829779 0.521326
0.0816528 0.849146 0.511814 0.0669537 0.850727 0.521326
0.0760471 0.875751 0.469119 0.0669537 0.850727 0.521326
-0.0119338 0.867885 0.490189 -0.0669537 0.850727 0.521326
-0.220304 0.7787 0.584363 -0.199212 0.829779 0.521326
-0.171481 0.859026 0.475168 -0.199212 0.829779 0.521326
-0.27466 0.792093 0.538052 -0.326566 0.7884 0.521326
-0.296209 0.820295 0.481903 -0.326566 0.7884 0.521326
-0.438742 0.679479 0.584397 -0.445878 0.727607 0.521326
-0.523815 0.655619 0.535071 -0.554211 0.648898 0.521326
-0.565808 0.603604 0.555171 -0.554211 0.648898 0.521326
-0.605359 0.54332 0.576894 -0.648898 0.554211 0.521326
-0.683671 0.527199 0.496557 -0.648898 0.554211 0.521326
-0.701243 0.462061 0.534077 -0.727607 0.445878 0.521326
-0.752769 0.378862 0.532246 -0.7884 0.326566 0.521326
-0.805073 0.361105 0.46427 -0.7884 0.326566 0.521326
-0.804632 0.157415 0.56712 -0.829779 0.199212 0.521326
-0.846817 0.210347 0.479749 -0.829779 0.199212 0.521326
-0.800631 0.126031 0.585284 -0.850727 0.0669537 0.521326
-0.858621 0.0851519 0.495904 -0.850727 0.0669537 0.521326
-0.85205 -0.0542468 0.510595 -0.850727 -0.0669537 0.521326
-0.843784 -0.155972 0.505354 -0.829779 -0.199212 0.521326
-0.816098 -0.260816 0.509358 -0.829779 -0.199212 0.521326
-0.810527 -0.285014 0.503687 -0.7884 -0.326566 0.521326
-0.776276 -0.376391 0.498246 -0.7884 -0.326566 0.521326
-0.748438 -0.467648 0.463429 -0.727607 -0.445878 0.521326
-0.702426 -0.511766 0.489618 -0.648898 -0.554211 0.521326
-0.634545 -0.602853 0.477277 -0.648898 -0.554211 0.521326
-0.523884 -0.613946 0.586868 -0.554211 -0.648898 0.521326
-0.495262 -0.67964 0.535525 -0.554211 -0.648898 0.521326
-0.454037 -0.75829 0.461319 -0.445878 -0.727607 0.521326
-0.346797 -0.748634 0.558586 -0.326566 -0.7884 0.521326
-0.293459 -0.787488 0.533239 -0.326566 -0.7884 0.521326
-0.222724 -0.778835 0.583224 -0.199212 -0.829779 0.521326
-0.168919 -0.870744 0.457496 -0.199212 -0.829779 0.521326
-0.00262656 -0.852457 0.516561 -0.0669537 -0.850727 0.521326
0.0768059 -0.821736 0.557165 0.0669537 -0.850727 0.521326
0.102486 -0.868588 0.477413 0.0669537 -0.850727 0.521326
0.178271 -0.814513 0.543423 0.199212 -0.829779 0.521326
0.266435 -0.838115 0.472166 0.199212 -0.829779 0.521326
0.362069 -0.795705 0.477835 0.326566 -0.7884 0.521326
0.460121 -0.674014 0.57374 0.445878 -0.727607 0.521326
0.51066 -0.712203 0.477214 0.445878 -0.727607 0.521326
0.503194 -0.677306 0.529998 0.554211 -0.648898 0.521326
0.560575 -0.680304 0.465266 0.554211 -0.648898 0.521326
0.663417 -0.574027 0.471985 0.648898 -0.554211 0.521326
0.687124 -0.452256 0.562169 0.727607 -0.445878 0.521326
0.721123 -0.497394 0.476111 0.727607 -0.445878 0.521326
0.77975 -0.370977 0.496383 0.7884 -0.326566 0.521326
0.800733 -0.286948 0.517288 0.7884 -0.326566 0.521326
0.85289 -0.213095 0.469032 0.829779 -0.199212 0.521326
0.802118 -0.113236 0.5845 0.850727 -0.0669537 0.521326
0.887382 -0.0454797 0.454064 0.850727 -0.0669537 0.521326
0.911111 0.0243219 0.400832 0.921447 0.0725194 0.381676
0.920925 0.108232 0.361197 0.921447 0.0725194 0.381676
0.892454 0.176593 0.403716 0.898758 0.215773 0.381676
0.900953 0.256347 0.338614 0.898758 0.215773 0.381676
0.836287 0.3634 0.397238 0.853938 0.353713 0.381676
0.79074 0.426212 0.433038 0.788092 0.482943 0.381676
0.812511 0.466802 0.336726 0.788092 0.482943 0.381676
0.7516 0.554346 0.349179 0.70284 0.600282 0.381676
0.67891 0.663258 0.311743 0.70284 0.600282 0.381676
0.602723 0.684859 0.395995 0.600282 0.70284 0.381676
0.559999 0.766358 0.313112 0.600282 0.70284 0.381676
0.528902 0.756304 0.374206 0.482943 0.788092 0.381676
0.49972 0.795876 0.32942 0.482943 0.788092 0.381676
0.371327 0.831673 0.400214 0.353713 0.853938 0.381676
0.22991 0.860904 0.447868 0.215773 0.898758 0.381676
0.159314 0.894418 0.408859 0.215773 0.898758 0.381676
0.050793 0.889042 0.449083 0.0725194 0.921447 0.381676
0.0471556 0.919095 0.37722 0.0725194 0.921447 0.381676
-0.111293 0.886445 0.443858 -0.0725194 0.921447 0.381676
-0.129593 0.906023 0.393116 -0.0725194 0.921447 0.381676
-0.141195 0.883242 0.44542 -0.215773 0.898758 0.381676
-0.204494 0.923409 0.31505 -0.215773 0.898758 0.381676
-0.351703 0.841882 0.395559 -0.353713 0.853938 0.381676
-0.3535 0.86437 0.343581 -0.353713 0.853938 0.381676
-0.444481 0.833085 0.322488 -0.482943 0.788092 0.381676
-0.595841 0.687461 0.402029 -0.600282 0.70284 0.381676
-0.613041 0.688669 0.372752 -0.600282 0.70284 0.381676
-0.686189 0.627567 0.354472 -0.70284 0.600282 0.381676
-0.720314 0.604204 0.328377 -0.70284 0.600282 0.381676
-0.774042 0.514126 0.356278 -0.788092 0.482943 0.381676
-0.779677 0.51311 0.345927 -0.788092 0.482943 0.381676
-0.821442 0.361684 0.432039 -0.853938 0.353713 0.381676
-0.862948 0.39305 0.310109 -0.853938 0.353713 0.381676
-0.896519 0.219961 0.369626 -0.898758 0.215773 0.381676
-0.906235 0.124686 0.393535 -0.921447 0.0725194 0.381676
-0.925034 0.0936493 0.354048 -0.921447 0.0725194 0.381676
-0.941416 -0.00101151 0.332098 -0.921447 -0.0725194 0.381676
-0.904258 -0.104747 0.402097 -0.921447 -0.0725194 0.381676
-0.919618 -0.152723 0.353246 -0.898758 -0.215773 0.381676
-0.885431 -0.226011 0.392316 -0.898758 -0.215773 0.381676
-0.839223 -0.336643 0.415465 -0.853938 -0.353713 0.381676
-0.890464 -0.322584 0.313851 -0.853938 -0.353713 0.381676
-0.804039 -0.454319 0.370014 -0.788092 -0.482943 0.381676
-0.753483 -0.5494 0.35349 -0.70284 -0.600282 0.381676
-0.649304 -0.626558 0.423983 -0.70284 -0.600282 0.381676
-0.610354 -0.670064 0.411238 -0.600282 -0.70284 0.381676
-0.637036 -0.686695 0.338649 -0.600282 -0.70284 0.381676
-0.486785 -0.75214 0.436096 -0.482943 -0.788092 0.381676
-0.456137 -0.814259 0.346611 -0.482943 -0.788092 0.381676
-0.326181 -0.846177 0.409603 -0.353713 -0.853938 0.381676
-0.286101 -0.863207 0.408643 -0.353713 -0.853938 0.381676
-0.222208 -0.889841 0.384081 -0.215773 -0.898758 0.381676
-0.165751 -0.901911 0.387577 -0.215773 -0.898758 0.381676
-0.0826411 -0.943991 0.310372 -0.0725194 -0.921447 0.381676
0.0403238 -0.926963 0.359522 0.0725194 -0.921447 0.381676
0.109284 -0.924958 0.351261 0.0725194 -0.921447 0.381676
0.158572 -0.901836 0.391811 0.215773 -0.898758 0.381676
0.240352 -0.903534 0.341581 0.215773 -0.898758 0.381676
0.289832 -0.87879 0.370321 0.353713 -0.853938 0.381676
0.423227 -0.84841 0.31467 0.353713 -0.853938 0.381676
0.451252 -0.817426 0.346254 0.482943 -0.788092 0.381676
0.512009 -0.746986 0.414823 0.482943 -0.788092 0.381676
0.585639 -0.723272 0.352129 0.600282 -0.70284 0.381676
0.650408 -0.627742 0.420087 0.70284 -0.600282 0.381676
0.722411 -0.606599 0.320749 0.70284 -0.600282 0.381676
0.738937 -0.533929 0.403705 0.788092 -0.482943 0.381676
0.816032 -0.431834 0.373701 0.788092 -0.482943 0.381676
0.840788 -0.379556 0.372193 0.853938 -0.353713 0.381676
0.897084 -0.298848 0.321037 0.853938 -0.353713 0.381676
0.889749 -0.268753 0.357984 0.898758 -0.215773 0.381676
0.906048 -0.207182 0.354411 0.898758 -0.215773 0.381676
0.889299 -0.0619622 0.44634 0.921447 -0.0725194 0.381676
0.9573 0.0670937 0.261015 0.969535 0.0763041 0.232765
0.966265 0.0836332 0.218252 0.969535 0.0763041 0.232765
0.943477 0.210935 0.231614 0.945662 0.227033 0.232765
0.958455 0.207785 0.173835 0.945662 0.227033 0.232765
0.922021 0.316413 0.205406 0.898503 0.372172 0.232765
0.877696 0.401163 0.241001 0.898503 0.372172 0.232765
0.817365 0.507415 0.250868 0.829221 0.508147 0.232765
0.845845 0.489955 0.187527 0.829221 0.508147 0.232765
0.718507 0.636618 0.260207 0.73952 0.63161 0.232765
0.682173 0.679875 0.258264 0.73952 0.63161 0.232765
0.625503 0.720081 0.285363 0.63161 0.73952 0.232765
0.599737 0.76133 0.224229 0.63161 0.73952 0.232765
0.515025 0.796461 0.308728 0.508147 0.829221 0.232765
0.450136 0.868047 0.195358 0.508147 0.829221 0.232765
0.305336 0.902372 0.298968 0.372172 0.898503 0.232765
0.304741 0.92681 0.205586 0.372172 0.898503 0.232765
0.257118 0.933035 0.22899 0.227033 0.945662 0.232765
0.165348 0.940953 0.286332 0.227033 0.945662 0.232765
0.100881 0.964625 0.21943 0.0763041 0.969535 0.232765
0.0417309 0.97672 0.188442 0.0763041 0.969535 0.232765
-0.0397043 0.968102 0.225 -0.0763041 0.969535 0.232765
-0.154192 0.972589 0.168684 -0.227033 0.945662 0.232765
-0.285054 0.912192 0.28642 -0.227033 0.945662 0.232765
-0.327079 0.913124 0.222698 -0.372172 0.898503 0.232765
-0.411242 0.885796 0.193615 -0.372172 0.898503 0.232765
-0.469072 0.836581 0.266118 -0.508147 0.829221 0.232765
-0.476914 0.859772 0.166381 -0.508147 0.829221 0.232765
-0.621936 0.736527 0.242793 -0.63161 0.73952 0.232765
-0.642371 0.716955 0.249523 -0.63161 0.73952 0.232765
-0.721243 0.625283 0.282268 -0.73952 0.63161 0.232765
-0.77327 0.606864 0.166954 -0.73952 0.63161 0.232765
-0.805462 0.553659 0.192318 -0.829221 0.508147 0.232765
-0.84482 0.460235 0.25606 -0.829221 0.508147 0.232765
-0.896804 0.335297 0.272556 -0.898503 0.372172 0.232765
-0.902274 0.358034 0.215085 -0.898503 0.372172 0.232765
-0.935353 0.232201 0.243876 -0.945662 0.227033 0.232765
-0.951834 0.235264 0.17393 -0.945662 0.227033 0.232765
-0.945403 0.0846745 0.30481 -0.969535 0.0763041 0.232765
-0.955608 0.0112299 0.286377 -0.969535 0.0763041 0.232765
-0.966278 -0.0648772 0.224349 -0.969535 -0.0763041 0.232765
-0.983296 -0.0477921 0.159064 -0.969535 -0.0763041 0.232765
-0.936489 -0.214525 0.256502 -0.945662 -0.227033 0.232765
-0.907365 -0.326041 0.246587 -0.898503 -0.372172 0.232765
-0.875881 -0.403358 0.244497 -0.898503 -0.372172 0.232765
-0.837935 -0.466162 0.267647 -0.829221 -0.508147 0.232765
-0.782483 -0.555513 0.270134 -0.829221 -0.508147 0.232765
-0.781092 -0.588273 0.19255 -0.73952 -0.63161 0.232765
-0.769848 -0.603432 0.18714 -0.73952 -0.63161 0.232765
-0.683688 -0.69991 0.191565 -0.63161 -0.73952 0.232765
-0.610812 -0.769305 0.168839 -0.63161 -0.73952 0.232765
-0.49709 -0.817756 0.272017 -0.508147 -0.829221 0.232765
-0.446442 -0.863279 0.220409 -0.508147 -0.829221 0.232765
-0.427357 -0.853181 0.29375 -0.372172 -0.898503 0.232765
-0.371995 -0.895381 0.219372 -0.372172 -0.898503 0.232765
-0.163116 -0.937975 0.300609 -0.227033 -0.945662 0.232765
-0.160732 -0.954051 0.23762 -0.227033 -0.945662 0.232765
-0.095976 -0.964298 0.2224 -0.0763041 -0.969535 0.232765
-0.0678638 -0.979013 0.170324 -0.0763041 -0.969535 0.232765
0.0280765 -0.970603 0.218398 0.0763041 -0.969535 0.232765
0.150065 -0.961349 0.216951 0.0763041 -0.969535 0.232765
0.182276 -0.932885 0.302598 0.227033 -0.945662 0.232765
0.258398 -0.948209 0.166093 0.227033 -0.945662 0.232765
0.317013 -0.911817 0.243838 0.372172 -0.898503 0.232765
0.541074 -0.781746 0.30428 0.508147 -0.829221 0.232765
0.552353 -0.814318 0.16362 0.508147 -0.829221 0.232765
0.605835 -0.753819 0.231544 0.63161 -0.73952 0.232765
0.624744 -0.747047 0.20175 0.63161 -0.73952 0.232765
0.744242 -0.596551 0.287166 0.73952 -0.63161 0.232765
0.7577 -0.585234 0.275115 0.73952 -0.63161 0.232765
0.800572 -0.554538 0.207818 0.829221 -0.508147 0.232765
0.825247 -0.527465 0.17902 0.829221 -0.508147 0.232765
0.858697 -0.433925 0.261953 0.898503 -0.372172 0.232765
0.904107 -0.34179 0.233984 0.898503 -0.372172 0.232765
0.918806 -0.267257 0.27691 0.945662 -0.227033 0.232765
0.939813 -0.278696 0.180408 0.945662 -0.227033 0.232765
0.954628 -0.051405 0.277289 0.969535 -0.0763041 0.232765
0.972115 -0.0422037 0.207469 0.969535 -0.0763041 0.232765
0.987119 0.063131 0.100544 0.993863 0.0782187 0.0782187
0.99836 0.0121273 0.00870736 0.993863 0.0782187 0.0782187
0.962982 0.222344 0.110085 0.969391 0.23273 0.0782187
0.953122 0.298932 0.00440664 0.969391 0.23273 0.0782187
0.940706 0.311663 0.10898 0.921049 0.381511 0.0782187
0.932888 0.352461 0.00204195 0.921049 0.381511 0.0782187
0.861411 0.485696 0.11049 0.850028 0.520898 0.0782187
0.82648 0.556462 0.0188216 0.850028 0.520898 0.0782187
0.714243 0.681285 0.144586 0.758076 0.647458 0.0782187
0.790521 0.609397 0.00036147 0.758076 0.647458 0.0782187
0.673806 0.726275 0.0898792 0.647458 0.758076 0.0782187
0.612869 0.784198 0.0329013 0.647458 0.758076 0.0782187
0.550843 0.821013 0.115651 0.520898 0.850028 0.0782187
0.457593 0.88874 0.000639329 0.520898 0.850028 0.0782187
0.357043 0.91995 0.132049 0.381511 0.921049 0.0782187
0.424057 0.901013 0.0281682 0.381511 0.921049 0.0782187
0.228993 0.964884 0.0667292 0.23273 0.969391 0.0782187
0.0285848 0.985803 0.1518 0.0782187 0.993863 0.0782187
0.0065267 0.995797 0.0468838 0.0782187 0.993863 0.0782187
-0.135924 0.977298 0.152531 -0.0782187 0.993863 0.0782187
-0.140542 0.983624 0.0675316 -0.0782187 0.993863 0.0782187
-0.193476 0.967412 0.141077 -0.23273 0.969391 0.0782187
-0.179712 0.980373 0.0214014 -0.23273 0.969391 0.0782187
-0.348199 0.93065 0.0491873 -0.381511 0.921049 0.0782187
-0.350263 0.93181 0.0254508 -0.381511 0.921049 0.0782187
-0.510416 0.845885 0.11458 -0.520898 0.850028 0.0782187
-0.579343 0.810767 0.0372017 -0.520898 0.850028 0.0782187
-0.60493 0.778543 0.153427 -0.647458 0.758076 0.0782187
-0.661985 0.745433 0.00204949 -0.647458 0.758076 0.0782187
-0.722532 0.683228 0.0481541 -0.758076 0.647458 0.0782187
-0.771135 0.622037 0.0836198 -0.758076 0.647458 0.0782187
-0.836478 0.524217 0.124902 -0.850028 0.520898 0.0782187
-0.874883 0.461626 0.124366 -0.850028 0.520898 0.0782187
-0.896162 0.425357 0.0789497 -0.921049 0.381511 0.0782187
-0.912635 0.390294 0.0559955 -0.921049 0.381511 0.0782187
-0.954811 0.264517 0.0858751 -0.969391 0.23273 0.0782187
-0.96217 0.241761 0.0623832 -0.969391 0.23273 0.0782187
-0.981919 0.137425 0.0923117 -0.993863 0.0782187 0.0782187
-0.99347 0.00203032 0.0809355 -0.993863 0.0782187 0.0782187
-0.977569 -0.133712 0.151306 -0.993863 -0.0782187 0.0782187
-0.97615 -0.153546 0.1495 -0.993863 -0.0782187 0.0782187
-0.968031 -0.207457 0.0918137 -0.969391 -0.23273 0.0782187
-0.961754 -0.240723 0.0706241 -0.969391 -0.23273 0.0782187
-0.927367 -0.337946 0.137853 -0.921049 -0.381511 0.0782187
-0.89126 -0.453331 0.000235336 -0.921049 -0.381511 0.0782187
-0.873281 -0.460914 0.146524 -0.850028 -0.520898 0.0782187
-0.808837 -0.574427 0.0909135 -0.850028 -0.520898 0.0782187
-0.7976 -0.592998 0.0674992 -0.758076 -0.647458 0.0782187
-0.713641 -0.688962 0.0868722 -0.758076 -0.647458 0.0782187
-0.683087 -0.722726 0.0474476 -0.647458 -0.758076 0.0782187
-0.633775 -0.763793 0.0576179 -0.647458 -0.758076 0.0782187
-0.554681 -0.823297 0.0652753 -0.520898 -0.850028 0.0782187
-0.488412 -0.863607 0.0685339 -0.520898 -0.850028 0.0782187
-0.422227 -0.896389 0.0915483 -0.381511 -0.921049 0.0782187
-0.344232 -0.928429 0.0946834 -0.381511 -0.921049 0.0782187
-0.215852 -0.963025 0.128867 -0.23273 -0.969391 0.0782187
-0.192219 -0.976929 0.026874 -0.23273 -0.969391 0.0782187
-0.144102 -0.977563 0.140983 -0.0782187 -0.993863 0.0782187
-0.121835 -0.989328 0.0137629 -0.0782187 -0.993863 0.0782187
0.0984536 -0.98285 0.119456 0.0782187 -0.993863 0.0782187
0.111203 -0.985267 0.0760015 0.0782187 -0.993863 0.0782187
0.241413 -0.96304 0.0526347 0.23273 -0.969391 0.0782187
0.363353 -0.919728 0.103884 0.381511 -0.921049 0.0782187
0.335472 -0.937675 0.0285344 0.381511 -0.921049 0.0782187
0.516035 -0.838969 0.152323 0.520898 -0.850028 0.0782187
0.551079 -0.830874 0.00692269 0.520898 -0.850028 0.0782187
0.591663 -0.796485 0.0893542 0.647458 -0.758076 0.0782187
0.694922 -0.716321 0.0115583 0.647458 -0.758076 0.0782187
0.734732 -0.667714 0.0583413 0.758076 -0.647458 0.0782187
0.73209 -0.674682 0.0262671 0.758076 -0.647458 0.0782187
0.802806 -0.575347 0.15033 0.850028 -0.520898 0.0782187
0.873939 -0.462901 0.126141 0.850028 -0.520898 0.0782187
0.897921 -0.413838 0.114423 0.921049 -0.381511 0.0782187
0.942999 -0.328004 0.00227163 0.921049 -0.381511 0.0782187
0.94593 -0.295695 0.103174 0.969391 -0.23273 0.0782187
0.97323 -0.20004 0.0494451 0.969391 -0.23273 0.0782187
0.986096 -0.0384732 0.138196 0.993863 -0.0782187 0.0782187
0.993112 -0.0334201 0.0541055 0.993863 -0.0782187 0.0782187
0.995951 0.012102 -0.0393475 0.993863 0.0782187 -0.0782187
0.983353 0.151694 -0.0598257 0.993863 0.0782187 -0.0782187
0.970343 0.196427 -0.095979 0.969391 0.23273 -0.0782187
0.94985 0.27062 -0.1292 0.969391 0.23273 -0.0782187
0.921542 0.361454 -0.0917801 0.921049 0.381511 -0.0782187
0.90048 0.416532 -0.0711473 0.921049 0.381511 -0.0782187
0.865281 0.49424 -0.0115301 0.850028 0.520898 -0.0782187
0.824399 0.54788 -0.0985882 0.850028 0.520898 -0.0782187
0.770623 0.627143 -0.0463181 0.758076 0.647458 -0.0782187
0.72435 0.668185 -0.155061 0.758076 0.647458 -0.0782187
0.661285 0.744187 -0.0199178 0.647458 0.758076 -0.0782187
0.685562 0.711097 -0.139664 0.647458 0.758076 -0.0782187
0.5661 0.821599 -0.00768547 0.520898 0.850028 -0.0782187
0.470692 0.871489 -0.100885 0.520898 0.850028 -0.0782187
0.431798 0.894564 -0.0663546 0.381511 0.921049 -0.0782187
0.310154 0.950263 -0.00379538 0.381511 0.921049 -0.0782187
0.20463 0.974946 -0.0145193 0.23273 0.969391 -0.0782187
0.157467 0.984258 -0.0394356 0.23273 0.969391 -0.0782187
0.0924086 0.990055 -0.0339552 0.0782187 0.993863 -0.0782187
0.0399378 0.98697 -0.125619 0.0782187 0.993863 -0.0782187
-0.000683297 0.997272 -0.0339846 -0.0782187 0.993863 -0.0782187
-0.152181 0.979131 -0.112988 -0.0782187 0.993863 -0.0782187
-0.212711 0.968816 -0.0664532 -0.23273 0.969391 -0.0782187
-0.29805 0.951024 -0.0330378 -0.23273 0.969391 -0.0782187
-0.405461 0.910683 -0.00500645 -0.381511 0.921049 -0.0782187
-0.385768 0.91066 -0.10133 -0.381511 0.921049 -0.0782187
-0.515737 0.852316 -0.0092568 -0.520898 0.850028 -0.0782187
-0.548253 0.820684 -0.136472 -0.520898 0.850028 -0.0782187
-0.665842 0.737215 -0.0497757 -0.647458 0.758076 -0.0782187
-0.669084 0.728379 -0.108565 -0.647458 0.758076 -0.0782187
-0.70924 0.687006 -0.145707 -0.758076 0.647458 -0.0782187
-0.842659 0.532879 -4.2494e-05 -0.850028 0.520898 -0.0782187
-0.837666 0.518612 -0.149317 -0.850028 0.520898 -0.0782187
-0.936475 0.340876 -0.0163067 -0.921049 0.381511 -0.0782187
-0.939461 0.327619 -0.0458119 -0.921049 0.381511 -0.0782187
-0.954421 0.276539 -0.0549398 -0.969391 0.23273 -0.0782187
-0.982808 0.171043 -0.0170134 -0.969391 0.23273 -0.0782187
-0.988269 0.0752622 -0.0737885 -0.993863 0.0782187 -0.0782187
-0.990581 0.0231024 -0.0965715 -0.993863 0.0782187 -0.0782187
-0.987836 -0.0484155 -0.106145 -0.993863 -0.0782187 -0.0782187
-0.985417 -0.0606323 -0.124665 -0.993863 -0.0782187 -0.0782187
-0.977829 -0.195763 -0.00517669 -0.969391 -0.23273 -0.0782187
-0.952514 -0.266119 -0.10958 -0.969391 -0.23273 -0.0782187
-0.939093 -0.309966 -0.13624 -0.921049 -0.381511 -0.0782187
-0.908577 -0.38602 -0.124628 -0.921049 -0.381511 -0.0782187
-0.821543 -0.566298 -0.00697365 -0.850028 -0.520898 -0.0782187
-0.816441 -0.566632 -0.0601924 -0.850028 -0.520898 -0.0782187
-0.7806 -0.613665 -0.0611871 -0.758076 -0.647458 -0.0782187
-0.707935 -0.68805 -0.149717 -0.758076 -0.647458 -0.0782187
-0.663222 -0.74446 -0.00124237 -0.647458 -0.758076 -0.0782187
-0.596611 -0.797384 -0.0396868 -0.647458 -0.758076 -0.0782187
-0.482329 -0.872991 -0.00705869 -0.520898 -0.850028 -0.0782187
-0.477607 -0.864801 -0.12751 -0.520898 -0.850028 -0.0782187
-0.406079 -0.902674 -0.0963011 -0.381511 -0.921049 -0.0782187
-0.31946 -0.945357 -0.0161816 -0.381511 -0.921049 -0.0782187
-0.298085 -0.950306 -0.0418276 -0.23273 -0.969391 -0.0782187
-0.212283 -0.96723 -0.0873784 -0.23273 -0.969391 -0.0782187
-0.125268 -0.988143 -0.0253944 -0.0782187 -0.993863 -0.0782187
-0.0243718 -0.994451 -0.0461342 -0.0782187 -0.993863 -0.0782187
0.0827689 -0.990742 -0.03486 0.0782187 -0.993863 -0.0782187
0.0390113 -0.984662 -0.155877 0.0782187 -0.993863 -0.0782187
0.233566 -0.964861 -0.0534088 0.23273 -0.969391 -0.0782187
0.201358 -0.966425 -0.129857 0.23273 -0.969391 -0.0782187
0.410893 -0.905831 -0.0356482 0.381511 -0.921049 -0.0782187
0.358279 -0.921004 -0.1136 0.381511 -0.921049 -0.0782187
0.46287 -0.873124 -0.1352 0.520898 -0.850028 -0.0782187
0.568967 -0.809988 -0.114768 0.520898 -0.850028 -0.0782187
0.622768 -0.769368 -0.0946966 0.647458 -0.758076 -0.0782187
0.692343 -0.707692 -0.116529 0.647458 -0.758076 -0.0782187
0.731082 -0.667442 -0.0959685 0.758076 -0.647458 -0.0782187
0.799484 -0.58114 -0.147394 0.758076 -0.647458 -0.0782187
0.857074 -0.50446 -0.0326516 0.850028 -0.520898 -0.0782187
0.833698 -0.529576 -0.11943 0.850028 -0.520898 -0.0782187
0.917548 -0.377308 -0.0614835 0.921049 -0.381511 -0.0782187
0.93836 -0.326147 -0.0659487 0.921049 -0.381511 -0.0782187
0.963601 -0.233563 -0.0690317 0.969391 -0.23273 -0.0782187
0.98693 -0.101553 -0.0645153 0.993863 -0.0782187 -0.0782187
0.985112 -0.0646325 -0.124541 0.993863 -0.0782187 -0.0782187
0.96862 0.0316182 -0.225495 0.969535 0.0763041 -0.232765
0.947153 0.103724 -0.291273 0.969535 0.0763041 -0.232765
0.940461 0.20973 -0.245041 0.945662 0.227033 -0.232765
0.922134 0.297161 -0.234222 0.945662 0.227033 -0.232765
0.886719 0.413052 -0.18716 0.898503 0.372172 -0.232765
0.870418 0.391999 -0.283746 0.898503 0.372172 -0.232765
0.844081 0.490304 -0.193048 0.829221 0.508147 -0.232765
0.789158 0.56711 -0.221038 0.829221 0.508147 -0.232765
0.763887 0.612935 -0.180293 0.73952 0.63161 -0.232765
0.711676 0.671078 -0.188399 0.73952 0.63161 -0.232765
0.596062 0.780239 -0.174123 0.63161 0.73952 -0.232765
0.617892 0.744255 -0.229214 0.63161 0.73952 -0.232765
0.549418 0.780439 -0.29072 0.508147 0.829221 -0.232765
0.510454 0.801533 -0.300638 0.508147 0.829221 -0.232765
0.435061 0.880944 -0.174261 0.372172 0.898503 -0.232765
0.322924 0.918181 -0.209821 0.372172 0.898503 -0.232765
0.259289 0.930522 -0.237084 0.227033 0.945662 -0.232765
0.166574 0.954651 -0.229484 0.227033 0.945662 -0.232765
0.132389 0.959968 -0.2285 0.0763041 0.969535 -0.232765
0.0150808 0.954379 -0.290233 0.0763041 0.969535 -0.232765
-0.0122976 0.967495 -0.236513 -0.0763041 0.969535 -0.232765
-0.207311 0.956348 -0.182854 -0.227033 0.945662 -0.232765
-0.175438 0.935776 -0.297523 -0.227033 0.945662 -0.232765
-0.304343 0.927318 -0.204261 -0.372172 0.898503 -0.232765
-0.404764 0.862824 -0.29265 -0.372172 0.898503 -0.232765
-0.508798 0.836711 -0.17893 -0.508147 0.829221 -0.232765
-0.464382 0.829923 -0.300077 -0.508147 0.829221 -0.232765
-0.66903 0.713434 -0.188371 -0.63161 0.73952 -0.232765
-0.621419 0.718501 -0.301467 -0.63161 0.73952 -0.232765
-0.695367 0.687577 -0.195444 -0.73952 0.63161 -0.232765
-0.747401 0.596352 -0.277667 -0.73952 0.63161 -0.232765
-0.824243 0.537073 -0.16162 -0.829221 0.508147 -0.232765
-0.851033 0.451585 -0.25281 -0.829221 0.508147 -0.232765
-0.927622 0.322634 -0.173842 -0.898503 0.372172 -0.232765
-0.90471 0.33531 -0.242018 -0.898503 0.372172 -0.232765
-0.971724 0.170311 -0.156478 -0.945662 0.227033 -0.232765
-0.954471 0.177836 -0.219231 -0.945662 0.227033 -0.232765
-0.972125 0.0574798 -0.20242 -0.969535 0.0763041 -0.232765
-0.963745 0.0423441 -0.242284 -0.969535 0.0763041 -0.232765
-0.957294 -0.0117155 -0.279195 -0.969535 -0.0763041 -0.232765
-0.942801 -0.116688 -0.30515 -0.969535 -0.0763041 -0.232765
-0.924654 -0.222691 -0.296621 -0.945662 -0.227033 -0.232765
-0.891262 -0.407635 -0.178285 -0.898503 -0.372172 -0.232765
-0.874447 -0.423704 -0.2175 -0.898503 -0.372172 -0.232765
-0.831074 -0.484229 -0.252649 -0.829221 -0.508147 -0.232765
-0.803712 -0.540476 -0.227335 -0.829221 -0.508147 -0.232765
-0.725615 -0.651017 -0.19855 -0.73952 -0.63161 -0.232765
-0.698393 -0.667728 -0.239691 -0.73952 -0.63161 -0.232765
-0.686475 -0.704472 -0.169509 -0.63161 -0.73952 -0.232765
-0.603395 -0.74892 -0.253731 -0.63161 -0.73952 -0.232765
-0.560576 -0.788277 -0.238438 -0.508147 -0.829221 -0.232765
-0.535455 -0.787557 -0.295845 -0.508147 -0.829221 -0.232765
-0.346338 -0.911292 -0.198975 -0.372172 -0.898503 -0.232765
-0.334935 -0.897891 -0.268936 -0.372172 -0.898503 -0.232765
-0.270613 -0.947063 -0.158835 -0.227033 -0.945662 -0.232765
-0.18858 -0.943746 -0.252323 -0.227033 -0.945662 -0.232765
-0.0921053 -0.962164 -0.232558 -0.0763041 -0.969535 -0.232765
-0.0534784 -0.958077 -0.262242 -0.0763041 -0.969535 -0.232765
0.0104435 -0.970713 -0.223718 0.0763041 -0.969535 -0.232765
0.119158 -0.942454 -0.305786 0.0763041 -0.969535 -0.232765
0.213138 -0.945837 -0.219876 0.227033 -0.945662 -0.232765
0.277822 -0.916357 -0.276556 0.227033 -0.945662 -0.232765
0.33131 -0.895149 -0.285321 0.372172 -0.898503 -0.232765
0.548846 -0.814743 -0.169762 0.508147 -0.829221 -0.232765
0.535543 -0.802072 -0.243943 0.508147 -0.829221 -0.232765
0.593754 -0.760547 -0.242952 0.63161 -0.73952 -0.232765
0.65643 -0.715601 -0.215678 0.63161 -0.73952 -0.232765
0.748229 -0.632774 -0.176206 0.73952 -0.63161 -0.232765
0.74066 -0.62177 -0.230115 0.73952 -0.63161 -0.232765
0.79405 -0.559194 -0.220888 0.829221 -0.508147 -0.232765
0.837154 -0.45575 -0.29316 0.829221 -0.508147 -0.232765
0.896898 -0.373092 -0.211762 0.898503 -0.372172 -0.232765
0.902968 -0.315785 -0.279961 0.898503 -0.372172 -0.232765
0.95722 -0.191408 -0.194825 0.945662 -0.227033 -0.232765
0.964188 -0.160202 -0.196955 0.945662 -0.227033 -0.232765
0.965374 -0.145109 -0.201811 0.969535 -0.0763041 -0.232765
0.97839 -0.000172429 -0.195109 0.969535 -0.0763041 -0.232765
0.931466 0.101415 -0.337044 0.921447 0.0725194 -0.381676
0.902702 0.0858204 -0.409448 0.921447 0.0725194 -0.381676
0.909192 0.254691 -0.320151 0.898758 0.215773 -0.381676
0.877616 0.285827 -0.37666 0.853938 0.353713 -0.381676
0.827664 0.333966 -0.443807 0.853938 0.353713 -0.381676
0.802517 0.474461 -0.347669 0.788092 0.482943 -0.381676
0.763048 0.498627 -0.398588 0.788092 0.482943 -0.381676
0.741968 0.573761 -0.336381 0.70284 0.600282 -0.381676
0.677518 0.584922 -0.437511 0.70284 0.600282 -0.381676
0.609552 0.675093 -0.40324 0.600282 0.70284 -0.381676
0.594748 0.689798 -0.399443 0.600282 0.70284 -0.381676
0.529139 0.740049 -0.40747 0.482943 0.788092 -0.381676
0.385107 0.863758 -0.315657 0.353713 0.853938 -0.381676
0.3774 0.812237 -0.438071 0.353713 0.853938 -0.381676
0.197864 0.905032 -0.362072 0.215773 0.898758 -0.381676
0.166193 0.91024 -0.367712 0.215773 0.898758 -0.381676
0.0792726 0.913043 -0.385727 0.0725194 0.921447 -0.381676
0.11279 0.891461 -0.431463 0.0725194 0.921447 -0.381676
-0.0479268 0.929699 -0.351472 -0.0725194 0.921447 -0.381676
-0.140746 0.919276 -0.358999 -0.0725194 0.921447 -0.381676
-0.19584 0.918704 -0.331023 -0.215773 0.898758 -0.381676
-0.178575 0.884259 -0.421892 -0.215773 0.898758 -0.381676
-0.400384 0.806569 -0.429451 -0.353713 0.853938 -0.381676
-0.421669 0.792512 -0.435127 -0.482943 0.788092 -0.381676
-0.483744 0.749604 -0.445179 -0.482943 0.788092 -0.381676
-0.640958 0.697395 -0.312776 -0.600282 0.70284 -0.381676
-0.588775 0.694632 -0.399935 -0.600282 0.70284 -0.381676
-0.66279 0.638511 -0.380349 -0.70284 0.600282 -0.381676
-0.723401 0.540047 -0.423596 -0.70284 0.600282 -0.381676
-0.742125 0.523306 -0.410563 -0.788092 0.482943 -0.381676
-0.791042 0.439582 -0.415498 -0.788092 0.482943 -0.381676
-0.855173 0.403792 -0.31755 -0.853938 0.353713 -0.381676
-0.916971 0.241354 -0.309372 -0.898758 0.215773 -0.381676
-0.874906 0.206019 -0.428402 -0.898758 0.215773 -0.381676
-0.921936 0.0808121 -0.363965 -0.921447 0.0725194 -0.381676
-0.896617 0.0706001 -0.427031 -0.921447 0.0725194 -0.381676
-0.947693 -0.0297199 -0.311491 -0.921447 -0.0725194 -0.381676
-0.902487 -0.0458142 -0.41757 -0.921447 -0.0725194 -0.381676
-0.898025 -0.218331 -0.367002 -0.898758 -0.215773 -0.381676
-0.881225 -0.207111 -0.412904 -0.898758 -0.215773 -0.381676
-0.874804 -0.362869 -0.311553 -0.853938 -0.353713 -0.381676
-0.820627 -0.390234 -0.407406 -0.853938 -0.353713 -0.381676
-0.771878 -0.524912 -0.347098 -0.788092 -0.482943 -0.381676
-0.722937 -0.557879 -0.396405 -0.70284 -0.600282 -0.381676
-0.673353 -0.654143 -0.336313 -0.70284 -0.600282 -0.381676
-0.625642 -0.695174 -0.340954 -0.600282 -0.70284 -0.381676
-0.562284 -0.713929 -0.406064 -0.600282 -0.70284 -0.381676
-0.503322 -0.771223 -0.375768 -0.482943 -0.788092 -0.381676
-0.432617 -0.791018 -0.424359 -0.482943 -0.788092 -0.381676
-0.352331 -0.854345 -0.367092 -0.353713 -0.853938 -0.381676
-0.35769 -0.836067 -0.403021 -0.353713 -0.853938 -0.381676
-0.23108 -0.907573 -0.337312 -0.215773 -0.898758 -0.381676
-0.110187 -0.898627 -0.414657 -0.0725194 -0.921447 -0.381676
-0.100283 -0.891011 -0.434925 -0.0725194 -0.921447 -0.381676
0.133309 -0.934729 -0.323106 0.0725194 -0.921447 -0.381676
0.0437294 -0.89239 -0.442342 0.0725194 -0.921447 -0.381676
0.211879 -0.903715 -0.35725 0.215773 -0.898758 -0.381676
0.176932 -0.872337 -0.450894 0.215773 -0.898758 -0.381676
0.328843 -0.888209 -0.313094 0.353713 -0.853938 -0.381676
0.382986 -0.810515 -0.436746 0.353713 -0.853938 -0.381676
0.50824 -0.798533 -0.313156 0.482943 -0.788092 -0.381676
0.603178 -0.705946 -0.356449 0.600282 -0.70284 -0.381676
0.619203 -0.687074 -0.365997 0.600282 -0.70284 -0.381676
0.646581 -0.636827 -0.412846 0.70284 -0.600282 -0.381676
0.674218 -0.602096 -0.416577 0.70284 -0.600282 -0.381676
0.792088 -0.501896 -0.334491 0.788092 -0.482943 -0.381676
0.783184 -0.468155 -0.395568 0.788092 -0.482943 -0.381676
0.837913 -0.388461 -0.370373 0.853938 -0.353713 -0.381676
0.850281 -0.290783 -0.433223 0.853938 -0.353713 -0.381676
0.883731 -0.226773 -0.395889 0.898758 -0.215773 -0.381676
0.869237 -0.242702 -0.421013 0.898758 -0.215773 -0.381676
0.919439 -0.00632148 -0.384148 0.921447 -0.0725194 -0.381676
0.858725 0.0488845 -0.500391 0.850727 0.0669537 -0.521326
0.841126 0.110918 -0.521144 0.850727 0.0669537 -0.521326
0.852633 0.177191 -0.483161 0.829779 0.199212 -0.521326
0.78637 0.212129 -0.57528 0.829779 0.199212 -0.521326
0.778858 0.308154 -0.537085 0.7884 0.326566 -0.521326
0.734659 0.414995 -0.527692 0.727607 0.445878 -0.521326
0.714963 0.459161 -0.517408 0.727607 0.445878 -0.521326
0.661715 0.565446 -0.483226 0.648898 0.554211 -0.521326
0.628912 0.520413 -0.57193 0.648898 0.554211 -0.521326
0.533342 0.697502 -0.47281 0.554211 0.648898 -0.521326
0.505041 0.714081 -0.4794 0.445878 0.727607 -0.521326
0.42243 0.753522 -0.495007 0.445878 0.727607 -0.521326
0.360837 0.771959 -0.514517 0.326566 0.7884 -0.521326
0.356694 0.729886 -0.58074 0.326566 0.7884 -0.521326
0.207147 0.855997 -0.46636 0.199212 0.829779 -0.521326
0.114224 0.86652 -0.47928 0.0669537 0.850727 -0.521326
0.0522828 0.827296 -0.551243 0.0669537 0.850727 -0.521326
-0.0212067 0.830723 -0.549641 -0.0669537 0.850727 -0.521326
-0.05331 0.818346 -0.565715 -0.0669537 0.850727 -0.521326
-0.144445 0.865836 -0.474659 -0.199212 0.829779 -0.521326
-0.334163 0.797877 -0.49203 -0.326566 0.7884 -0.521326
-0.362213 0.738726 -0.563913 -0.326566 0.7884 -0.521326
-0.39666 0.74267 -0.532194 -0.445878 0.727607 -0.521326
-0.479119 0.671563 -0.560911 -0.445878 0.727607 -0.521326
-0.518365 0.675343 -0.516313 -0.554211 0.648898 -0.521326
-0.709665 0.533002 -0.458033 -0.648898 0.554211 -0.521326
-0.68831 0.523444 -0.494774 -0.648898 0.554211 -0.521326
-0.739828 0.489485 -0.456769 -0.727607 0.445878 -0.521326
-0.719298 0.394975 -0.566255 -0.727607 0.445878 -0.521326
-0.781523 0.339128 -0.513651 -0.7884 0.326566 -0.521326
-0.789127 0.249729 -0.556522 -0.829779 0.199212 -0.521326
-0.821665 0.141796 -0.545977 -0.829779 0.199212 -0.521326
-0.821462 0.101616 -0.554426 -0.850727 0.0669537 -0.521326
-0.804139 0.0876846 -0.584483 -0.850727 0.0669537 -0.521326
-0.822136 -0.0162515 -0.56429 -0.850727 -0.0669537 -0.521326
-0.829481 -0.134238 -0.536426 -0.829779 -0.199212 -0.521326
-0.80068 -0.151665 -0.575607 -0.829779 -0.199212 -0.521326
-0.813916 -0.34585 -0.460454 -0.7884 -0.326566 -0.521326
-0.739685 -0.336485 -0.578579 -0.7884 -0.326566 -0.521326
-0.725912 -0.471903 -0.49123 -0.727607 -0.445878 -0.521326
-0.679992 -0.503083 -0.526772 -0.648898 -0.554211 -0.521326
-0.622799 -0.523454 -0.576305 -0.648898 -0.554211 -0.521326
-0.573462 -0.604725 -0.54564 -0.554211 -0.648898 -0.521326
-0.532788 -0.62124 -0.568323 -0.554211 -0.648898 -0.521326
-0.510616 -0.709262 -0.481356 -0.445878 -0.727607 -0.521326
-0.372174 -0.777739 -0.498674 -0.326566 -0.7884 -0.521326
-0.284265 -0.822435 -0.486149 -0.326566 -0.7884 -0.521326
-0.185295 -0.85422 -0.477539 -0.199212 -0.829779 -0.521326
-0.202298 -0.788556 -0.575556 -0.199212 -0.829779 -0.521326
-0.0894631 -0.863595 -0.487232 -0.0669537 -0.850727 -0.521326
-0.027915 -0.814124 -0.575867 -0.0669537 -0.850727 -0.521326
0.121411 -0.816027 -0.560754 0.0669537 -0.850727 -0.521326
0.136884 -0.856114 -0.493023 0.199212 -0.829779 -0.521326
0.223976 -0.785374 -0.572337 0.199212 -0.829779 -0.521326
0.35059 -0.814983 -0.45587 0.326566 -0.7884 -0.521326
0.344189 -0.769604 -0.528507 0.326566 -0.7884 -0.521326
0.477035 -0.681915 -0.548246 0.445878 -0.727607 -0.521326
0.58702 -0.646517 -0.479208 0.554211 -0.648898 -0.521326
0.497344 -0.649633 -0.570662 0.554211 -0.648898 -0.521326
0.634886 -0.608865 -0.470462 0.648898 -0.554211 -0.521326
0.629657 -0.532436 -0.558221 0.648898 -0.554211 -0.521326
0.723161 -0.378479 -0.574972 0.727607 -0.445878 -0.521326
0.802615 -0.373931 -0.459954 0.7884 -0.326566 -0.521326
0.768534 -0.330561 -0.538662 0.7884 -0.326566 -0.521326
0.848551 -0.208234 -0.477796 0.829779 -0.199212 -0.521326
0.804592 -0.134338 -0.576001 0.829779 -0.199212 -0.521326
0.86261 -0.00990838 -0.499057 0.850727 -0.0669537 -0.521326
0.77954 0.0502388 -0.617669 0.759048 0.0597384 -0.648288
0.753272 0.10779 -0.643121 0.759048 0.0597384 -0.648288
0.765254 0.221233 -0.600431 0.740358 0.177744 -0.648288
0.701098 0.240938 -0.665993 0.703437 0.291373 -0.648288
0.660745 0.25179 -0.704901 0.703437 0.291373 -0.648288
0.679101 0.420975 -0.596636 0.649196 0.397828 -0.648288
0.576528 0.535881 -0.611393 0.578969 0.494487 -0.648288
0.563408 0.552403 -0.610508 0.578969 0.494487 -0.648288
0.472608 0.60224 -0.636692 0.494487 0.578969 -0.648288
0.438731 0.623725 -0.641193 0.397828 0.649196 -0.648288
0.348022 0.672254 -0.64826 0.397828 0.649196 -0.648288
0.275149 0.664505 -0.690323 0.291373 0.703437 -0.648288
0.188829 0.75327 -0.623001 0.177744 0.740358 -0.648288
0.197861 0.699167 -0.682311 0.177744 0.740358 -0.648288
0.0231304 0.779518 -0.620193 0.0597384 0.759048 -0.648288
-0.0152544 0.749384 -0.6562 -0.0597384 0.759048 -0.648288
-0.10558 0.733211 -0.666814 -0.0597384 0.759048 -0.648288
-0.176114 0.725616 -0.658069 -0.177744 0.740358 -0.648288
-0.312117 0.732599 -0.599821 -0.291373 0.703437 -0.648288
-0.260875 0.683543 -0.676081 -0.291373 0.703437 -0.648288
-0.412331 0.596155 -0.685002 -0.397828 0.649196 -0.648288
-0.508578 0.590547 -0.619698 -0.494487 0.578969 -0.648288
-0.509192 0.555597 -0.650443 -0.494487 0.578969 -0.648288
-0.576452 0.463224 -0.666881 -0.578969 0.494487 -0.648288
-0.651329 0.441018 -0.612147 -0.649196 0.397828 -0.648288
-0.68555 0.357882 -0.628895 -0.649196 0.397828 -0.648288
-0.671759 0.245305 -0.695866 -0.703437 0.291373 -0.648288
-0.733668 0.196093 -0.643396 -0.740358 0.177744 -0.648288
-0.742966 0.166885 -0.640786 -0.740358 0.177744 -0.648288
-0.730078 0.0201421 -0.678355 -0.759048 0.0597384 -0.648288
-0.737087 -0.0166763 -0.670467 -0.759048 -0.0597384 -0.648288
-0.743163 -0.0641581 -0.658978 -0.759048 -0.0597384 -0.648288
-0.697389 -0.131625 -0.702502 -0.740358 -0.177744 -0.648288
-0.756561 -0.273932 -0.590983 -0.703437 -0.291373 -0.648288
-0.680989 -0.292429 -0.664671 -0.703437 -0.291373 -0.648288
-0.613453 -0.376308 -0.689786 -0.649196 -0.397828 -0.648288
-0.614694 -0.481743 -0.618602 -0.578969 -0.494487 -0.648288
-0.566588 -0.482334 -0.661114 -0.578969 -0.494487 -0.648288
-0.476999 -0.590578 -0.643758 -0.494487 -0.578969 -0.648288
-0.387921 -0.70104 -0.594949 -0.397828 -0.649196 -0.648288
-0.269075 -0.759985 -0.589451 -0.291373 -0.703437 -0.648288
-0.227856 -0.70069 -0.672315 -0.291373 -0.703437 -0.648288
-0.207973 -0.706618 -0.671031 -0.177744 -0.740358 -0.648288
-0.105951 -0.781426 -0.610327 -0.0597384 -0.759048 -0.648288
-0.0178851 -0.785377 -0.613816 -0.0597384 -0.759048 -0.648288
0.0330605 -0.73346 -0.673204 0.0597384 -0.759048 -0.648288
0.219871 -0.757535 -0.60962 0.177744 -0.740358 -0.648288
0.179543 -0.685044 -0.703463 0.177744 -0.740358 -0.648288
0.316494 -0.712748 -0.619393 0.291373 -0.703437 -0.648288
0.362424 -0.661486 -0.650206 0.397828 -0.649196 -0.648288
0.352254 -0.629918 -0.688059 0.397828 -0.649196 -0.648288
0.485246 -0.646044 -0.587932 0.494487 -0.578969 -0.648288
0.592429 -0.52429 -0.606033 0.578969 -0.494487 -0.648288
0.592379 -0.478053 -0.641346 0.578969 -0.494487 -0.648288
0.657351 -0.447071 -0.602403 0.649196 -0.397828 -0.648288
0.666689 -0.305083 -0.6745 0.703437 -0.291373 -0.648288
0.67933 -0.225095 -0.696734 0.703437 -0.291373 -0.648288
0.75604 -0.230492 -0.608415 0.740358 -0.177744 -0.648288
0.75692 -0.0962692 -0.639912 0.759048 -0.0597384 -0.648288
0.746838 -0.00043659 -0.660547 0.759048 -0.0597384 -0.648288
0.685124 0.0165687 -0.724768 0.648601 0.051046 -0.759415
0.68347 0.148564 -0.711956 0.632631 0.151881 -0.759415
0.632716 0.282491 -0.717618 0.601082 0.248977 -0.759415
0.618107 0.303888 -0.722166 0.601082 0.248977 -0.759415
0.525108 0.297982 -0.794067 0.554734 0.339941 -0.759415
0.511865 0.407853 -0.750647 0.494725 0.422535 -0.759415
0.421566 0.47651 -0.76605 0.422535 0.494725 -0.759415
0.384168 0.485089 -0.781269 0.422535 0.494725 -0.759415
0.33441 0.493919 -0.800544 0.339941 0.554734 -0.759415
0.193969 0.588572 -0.78158 0.248977 0.601082 -0.759415
0.161041 0.679294 -0.712939 0.151881 0.632631 -0.759415
0.0973385 0.653872 -0.746031 0.051046 0.648601 -0.759415
0.0185292 0.662504 -0.743956 0.051046 0.648601 -0.759415
-0.0861054 0.606449 -0.787288 -0.051046 0.648601 -0.759415
-0.158363 0.683049 -0.710346 -0.151881 0.632631 -0.759415
-0.200361 0.598043 -0.771988 -0.248977 0.601082 -0.759415
-0.342483 0.567495 -0.743184 -0.339941 0.554734 -0.759415
-0.310003 0.503129 -0.804741 -0.339941 0.554734 -0.759415
-0.478093 0.487925 -0.727162 -0.422535 0.494725 -0.759415
-0.467697 0.43773 -0.762798 -0.494725 0.422535 -0.759415
-0.545162 0.395027 -0.735978 -0.554734 0.339941 -0.759415
-0.537077 0.286322 -0.790544 -0.554734 0.339941 -0.759415
-0.595141 0.225724 -0.76597 -0.601082 0.248977 -0.759415
-0.671972 0.122368 -0.726774 -0.632631 0.151881 -0.759415
-0.591047 0.0932102 -0.799966 -0.648601 0.051046 -0.759415
-0.679936 -0.0284519 -0.7284 -0.648601 -0.051046 -0.759415
-0.663182 -0.0966305 -0.738127 -0.648601 -0.051046 -0.759415
-0.640467 -0.197215 -0.738049 -0.632631 -0.151881 -0.759415
-0.641029 -0.274621 -0.713618 -0.601082 -0.248977 -0.759415
-0.538972 -0.305951 -0.780373 -0.554734 -0.339941 -0.759415
-0.504029 -0.443998 -0.735641 -0.494725 -0.422535 -0.759415
-0.42008 -0.414185 -0.806918 -0.494725 -0.422535 -0.759415
-0.414943 -0.517765 -0.742859 -0.422535 -0.494725 -0.759415
-0.364271 -0.582641 -0.722367 -0.339941 -0.554734 -0.759415
-0.261019 -0.5433 -0.795431 -0.248977 -0.601082 -0.759415
-0.218451 -0.619522 -0.749056 -0.248977 -0.601082 -0.759415
-0.124822 -0.634704 -0.757329 -0.151881 -0.632631 -0.759415
-0.0367581 -0.600775 -0.795452 -0.051046 -0.648601 -0.759415
0.0915138 -0.688974 -0.716442 0.051046 -0.648601 -0.759415
0.143455 -0.668063 -0.725812 0.151881 -0.632631 -0.759415
0.144858 -0.60386 -0.779016 0.151881 -0.632631 -0.759415
0.272341 -0.572904 -0.768287 0.248977 -0.601082 -0.759415
0.295706 -0.571243 -0.761386 0.339941 -0.554734 -0.759415
0.449373 -0.529448 -0.716091 0.422535 -0.494725 -0.759415
0.494311 -0.440242 -0.744062 0.494725 -0.422535 -0.759415
0.516695 -0.40812 -0.747353 0.494725 -0.422535 -0.759415
0.579257 -0.316762 -0.746106 0.554734 -0.339941 -0.759415
0.605271 -0.304562 -0.732105 0.601082 -0.248977 -0.759415
0.594104 -0.174298 -0.781255 0.632631 -0.151881 -0.759415
0.636305 -0.111724 -0.758614 0.632631 -0.151881 -0.759415
0.69168 -0.00504497 -0.719943 0.648601 -0.051046 -0.759415
0.45353 0.038169 -0.889448 0.522057 0.0410868 -0.85192
0.469263 0.122617 -0.871133 0.509203 0.122249 -0.85192
0.444677 0.188405 -0.872359 0.48381 0.2004 -0.85192
0.394303 0.259544 -0.879193 0.446503 0.273618 -0.85192
0.369623 0.312427 -0.871719 0.398203 0.340098 -0.85192
0.308737 0.422094 -0.848666 0.340098 0.398203 -0.85192
0.327392 0.47408 -0.815589 0.273618 0.446503 -0.85192
0.221057 0.452694 -0.860125 0.2004 0.48381 -0.85192
0.15022 0.55985 -0.813027 0.122249 0.509203 -0.85192
0.0713859 0.526402 -0.84319 0.0410868 0.522057 -0.85192
-0.0655078 0.572712 -0.815095 -0.0410868 0.522057 -0.85192
-0.088124 0.466862 -0.877518 -0.122249 0.509203 -0.85192
-0.220516 0.512154 -0.826485 -0.2004 0.48381 -0.85192
-0.24646 0.452443 -0.852923 -0.273618 0.446503 -0.85192
-0.364814 0.443859 -0.816106 -0.340098 0.398203 -0.85192
-0.383561 0.341123 -0.853748 -0.398203 0.340098 -0.85192
-0.517116 0.276922 -0.809244 -0.446503 0.273618 -0.85192
-0.472061 0.237831 -0.845181 -0.48381 0.2004 -0.85192
-0.548294 0.161165 -0.818364 -0.509203 0.122249 -0.85192
-0.484221 0.0676887 -0.869217 -0.522057 0.0410868 -0.85192
-0.500859 -0.00491195 -0.862049 -0.522057 -0.0410868 -0.85192
-0.539894 -0.137483 -0.826783 -0.509203 -0.122249 -0.85192
-0.528376 -0.201869 -0.821659 -0.48381 -0.2004 -0.85192
-0.464605 -0.281461 -0.835308 -0.446503 -0.273618 -0.85192
-0.390744 -0.311106 -0.862374 -0.398203 -0.340098 -0.85192
-0.326324 -0.334009 -0.882818 -0.340098 -0.398203 -0.85192
-0.303826 -0.456044 -0.832611 -0.273618 -0.446503 -0.85192
-0.238661 -0.479446 -0.840791 -0.2004 -0.48381 -0.85192
-0.13804 -0.500112 -0.850481 -0.122249 -0.509203 -0.85192
-0.0670621 -0.506497 -0.855596 -0.0410868 -0.522057 -0.85192
-0.0156842 -0.512292 -0.854523 -0.0410868 -0.522057 -0.85192
0.0785931 -0.530567 -0.84029 0.0410868 -0.522057 -0.85192
0.0978539 -0.467656 -0.875647 0.122249 -0.509203 -0.85192
0.18415 -0.452528 -0.868901 0.2004 -0.48381 -0.85192
0.246995 -0.420346 -0.869573 0.273618 -0.446503 -0.85192
0.31856 -0.338863 -0.883648 0.340098 -0.398203 -0.85192
0.381963 -0.282041 -0.878082 0.398203 -0.340098 -0.85192
0.399291 -0.247615 -0.88041 0.446503 -0.273618 -0.85192
0.490125 -0.165528 -0.85193 0.48381 -0.2004 -0.85192
0.455389 -0.100052 -0.882664 0.509203 -0.122249 -0.85192
0.530455 -0.0130389 -0.84352 0.522057 -0.0410868 -0.85192
0.403435 0.118021 -0.904615 0.373091 0.0895713 -0.923461
0.379281 0.125918 -0.913441 0.354486 0.146833 -0.923461
0.259167 0.186881 -0.94667 0.327152 0.200479 -0.923461
0.270066 0.361211 -0.892058 0.249189 0.291762 -0.923461
0.195914 0.332518 -0.918723 0.200479 0.327152 -0.923461
0.112958 0.302607 -0.944934 0.146833 0.354486 -0.923461
0.0542152 0.347684 -0.933273 0.0301042 0.38251 -0.923461
-0.00266164 0.37894 -0.922007 -0.0301042 0.38251 -0.923461
-0.108375 0.355306 -0.924995 -0.0895713 0.373091 -0.923461
-0.168072 0.311441 -0.932235 -0.200479 0.327152 -0.923461
-0.263153 0.302876 -0.912354 -0.249189 0.291762 -0.923461
-0.233641 0.211668 -0.948121 -0.291762 0.249189 -0.923461
-0.412915 0.154522 -0.895982 -0.354486 0.146833 -0.923461
-0.423602 0.131606 -0.895149 -0.373091 0.0895713 -0.923461
-0.364349 0.0127307 -0.927722 -0.38251 0.0301042 -0.923461
-0.37218 -0.0650765 -0.922377 -0.373091 -0.0895713 -0.923461
-0.419139 -0.157147 -0.893175 -0.354486 -0.146833 -0.923461
-0.324332 -0.214225 -0.917648 -0.327152 -0.200479 -0.923461
-0.31319 -0.31425 -0.895258 -0.249189 -0.291762 -0.923461
