ply
format ascii 1.0
comment Created by Open3D
element vertex 893
property double x
property double y
property double z
property double nx
property double ny
property double nz
end_header
1.17867 4.48627 0.333547 -0.635363 -0.72911 0.0317823
1.15762 4.50983 0.366892 -0.78667 -0.492534 0.261716
1.15384 4.53298 0.380751 -0.812407 -0.189928 0.433626
1.15231 4.55748 0.387645 -0.772291 0.0882348 0.58597
1.16226 4.54854 0.402063 -0.773493 0.0854756 0.586577
1.16721 4.58807 0.385352 -0.561747 0.447974 0.620245
1.2113 4.60935 0.388105 -0.267897 0.717196 0.594622
1.21926 4.62823 0.366862 -0.165143 0.80478 0.530401
1.32898 4.62464 0.359167 0.259053 0.870686 0.407189
1.2483 4.64002 0.350411 -0.00838066 0.878104 0.456012
1.27081 4.6425 0.339501 0.0799358 0.89214 0.407917
1.30185 4.63734 0.341373 0.184348 0.891091 0.385273
1.36381 4.60001 0.380259 0.3546 0.820513 0.427904
1.37719 4.60028 0.363001 0.414133 0.813768 0.366073
1.34812 4.61347 0.368907 0.313717 0.849077 0.414136
1.36423 4.61146 0.353471 0.380499 0.837465 0.354283
1.3785 4.61249 0.333368 0.44553 0.831386 0.283713
1.45798 4.55977 0.283368 0.813539 0.562174 -0.104197
1.44748 4.56765 0.301285 0.739552 0.630471 0.00338783
1.43181 4.58345 0.297468 0.683511 0.685726 0.0440024
1.44944 4.54526 0.241726 0.820521 0.217221 -0.406557
1.44704 4.57254 0.262718 0.805702 0.566262 -0.150217
1.43385 4.48406 0.235849 0.494388 -0.413558 -0.704709
1.42233 4.46209 0.246042 0.32839 -0.568555 -0.729959
1.39912 4.47061 0.232132 0.276497 -0.638505 -0.676715
1.36401 4.45938 0.236154 0.0750567 -0.770951 -0.605934
1.40748 4.48505 0.218958 0.384459 -0.593936 -0.688841
1.31743 4.45082 0.257422 -0.131272 -0.83814 -0.499282
1.31158 4.43892 0.277486 -0.216351 -0.817182 -0.504242
1.29387 4.43279 0.292827 -0.307536 -0.822646 -0.467887
1.2486 4.4435 0.320982 -0.464569 -0.808192 -0.311636
1.21926 4.45519 0.330631 -0.536511 -0.814017 -0.20306
1.18077 4.48189 0.389947 -0.80785 -0.56408 0.14056
1.19983 4.46485 0.378048 -0.724049 -0.643443 0.00128663
1.1734 4.51746 0.41048 -0.815106 -0.158608 0.449074
1.1839 4.49043 0.410732 -0.82913 -0.356959 0.270349
1.19755 4.5431 0.437197 -0.598401 0.281879 0.662721
1.18403 4.55052 0.421858 -0.653367 0.242419 0.629478
1.20682 4.57151 0.431739 -0.419597 0.560081 0.705706
1.22267 4.54984 0.455907 -0.409734 0.509192 0.736879
1.22501 4.58435 0.423464 -0.28697 0.648143 0.668548
1.24735 4.59085 0.42158 -0.155095 0.715983 0.637811
1.2378 4.5689 0.442308 -0.269808 0.624665 0.696582
1.35745 4.58748 0.408019 0.306337 0.796383 0.507689
1.3305 4.61105 0.381408 0.241171 0.840181 0.462574
1.3383 4.59753 0.399282 0.249484 0.812351 0.501656
1.31272 4.60648 0.394407 0.166527 0.823554 0.510978
1.41542 4.57437 0.373442 0.528075 0.755735 0.350531
1.40912 4.56616 0.394403 0.48875 0.745184 0.415314
1.39381 4.5666 0.411134 0.423949 0.753155 0.478624
1.38943 4.58055 0.392684 0.426346 0.778247 0.432788
1.39247 4.55364 0.434425 0.398648 0.732407 0.544218
1.46976 4.5365 0.338094 0.768555 0.587245 0.0766555
1.45525 4.5519 0.34352 0.703926 0.651248 0.154261
1.47151 4.54057 0.314569 0.814245 0.552076 -0.0266909
1.48338 4.52199 0.333179 0.828933 0.527373 0.00453272
1.47957 4.51915 0.296338 0.847098 0.339569 -0.237833
1.4655 4.46829 0.269217 0.615501 -0.24508 -0.659103
1.38664 4.43861 0.262428 0.0456839 -0.695402 -0.687862
1.41243 4.44525 0.26014 0.198114 -0.606577 -0.728677
1.44949 4.43472 0.273888 0.328858 -0.486905 -0.799083
1.32073 4.40543 0.318514 -0.347889 -0.726396 -0.577515
1.35991 4.42818 0.276235 -0.111275 -0.743978 -0.642374
1.34128 4.41793 0.295669 -0.221295 -0.73707 -0.610733
1.28858 4.42152 0.320006 -0.404929 -0.77431 -0.464552
1.2403 4.43147 0.358338 -0.591731 -0.744845 -0.291454
1.20709 4.45011 0.418859 -0.832075 -0.527892 0.047535
1.22148 4.43682 0.405794 -0.7633 -0.590614 -0.0770814
1.19903 4.49619 0.456809 -0.814867 -0.0183194 0.553947
1.21573 4.47009 0.480088 -0.815711 -0.0288802 0.54668
1.20447 4.47564 0.452297 -0.825906 -0.185145 0.406077
1.21865 4.51617 0.467624 -0.588731 0.259717 0.680432
1.23398 4.536 0.47172 -0.392579 0.495206 0.758103
1.27663 4.54793 0.469392 -0.118765 0.628638 0.728543
1.30643 4.5433 0.47719 0.0347343 0.670587 0.723047
1.3666 4.56937 0.427611 0.317286 0.760026 0.549456
1.34268 4.5673 0.439372 0.22234 0.747619 0.598837
1.31423 4.57069 0.446414 0.116676 0.745577 0.639963
1.43423 4.5083 0.451758 0.51803 0.636672 0.543916
1.43918 4.51773 0.434556 0.549268 0.651118 0.490546
1.40913 4.52698 0.455251 0.433861 0.679797 0.582577
1.44413 4.5288 0.415284 0.582345 0.668441 0.431436
1.42123 4.52926 0.439347 0.487071 0.678755 0.524534
1.48089 4.51135 0.377331 0.75335 0.576312 0.206792
1.49638 4.4921 0.371316 0.819516 0.50852 0.118663
1.51128 4.47771 0.355488 0.89876 0.435034 -0.00926273
1.5017 4.46117 0.306292 0.831676 0.062383 -0.505215
1.50758 4.46145 0.3264 0.848506 0.199662 -0.348639
1.48212 4.43573 0.294599 0.564812 -0.213147 -0.712994
1.47275 4.41172 0.295975 0.378588 -0.370922 -0.819547
1.42184 4.39408 0.300863 0.0164272 -0.54083 -0.807085
1.4142 4.40873 0.29032 0.0363761 -0.584773 -0.775724
1.36834 4.40023 0.30549 -0.198947 -0.669036 -0.696285
1.33594 4.38639 0.332051 -0.366168 -0.661241 -0.637003
1.35462 4.39245 0.318526 -0.27647 -0.660383 -0.673434
1.32592 4.37192 0.351208 -0.455668 -0.625432 -0.627822
1.3147 4.39002 0.340486 -0.435786 -0.68183 -0.577705
1.30486 4.38381 0.358904 -0.506488 -0.644844 -0.545787
1.23499 4.41776 0.417696 -0.777485 -0.55844 -0.14691
1.22516 4.42407 0.435875 -0.845532 -0.494374 -0.0314794
1.25723 4.3945 0.398398 -0.689312 -0.621095 -0.357581
1.22594 4.4234 0.467459 -0.883633 -0.319469 0.155723
1.22073 4.44974 0.475682 -0.844181 -0.153751 0.381081
1.21728 4.43884 0.453356 -0.870835 -0.372071 0.154195
1.23025 4.45874 0.499205 -0.757905 0.0635676 0.609514
1.23592 4.44179 0.509272 -0.780807 0.0406619 0.598917
1.24876 4.48009 0.505508 -0.516393 0.298951 0.72749
1.28162 4.50606 0.504337 -0.198374 0.522163 0.797918
1.30501 4.50607 0.505836 -0.0621374 0.567856 0.78449
1.40344 4.50403 0.481412 0.387743 0.632176 0.655337
1.38791 4.52222 0.471033 0.344664 0.66587 0.641557
1.36749 4.53057 0.471885 0.272533 0.677245 0.659974
1.45565 4.47187 0.470117 0.570216 0.564539 0.56906
1.45188 4.45093 0.493784 0.537384 0.527694 0.639476
1.52026 4.44611 0.391322 0.878369 0.417219 0.112248
1.50772 4.45693 0.409661 0.807513 0.476994 0.246262
1.52918 4.40676 0.35288 0.853827 0.128511 -0.39002
1.5221 4.42643 0.343887 0.855454 0.140007 -0.375139
1.50121 4.40589 0.318331 0.600745 -0.151479 -0.700358
1.44407 4.3832 0.309218 0.10157 -0.469005 -0.840935
1.42157 4.37056 0.315704 -0.069357 -0.517465 -0.830062
1.37433 4.36786 0.332456 -0.284289 -0.578556 -0.74336
1.31615 4.35753 0.376542 -0.546734 -0.561274 -0.596726
1.33962 4.34327 0.365721 -0.484532 -0.534174 -0.689716
1.29613 4.36616 0.389114 -0.610274 -0.571278 -0.518712
1.27887 4.3457 0.42664 -0.745461 -0.484859 -0.453005
1.26573 4.36932 0.42552 -0.756388 -0.515185 -0.35317
1.23822 4.39162 0.479837 -0.912097 -0.339102 0.0603786
1.26058 4.4176 0.534185 -0.644918 0.139688 0.675978
1.31446 4.44347 0.545481 -0.126027 0.432377 0.860753
1.2985 4.43228 0.551283 -0.242847 0.38141 0.879254
1.29108 4.45489 0.538927 -0.248847 0.416208 0.860443
1.3116 4.46049 0.536221 -0.113899 0.463268 0.845312
1.4198 4.48645 0.490155 0.435409 0.600389 0.66415
1.37302 4.47998 0.515649 0.244432 0.574393 0.76406
1.42067 4.45827 0.510006 0.417141 0.542458 0.713171
1.46321 4.3821 0.534091 0.538556 0.395913 0.738606
1.49685 4.42558 0.470283 0.700796 0.468425 0.51976
1.47816 4.42731 0.487904 0.625934 0.477063 0.591361
1.465 4.40266 0.518132 0.557957 0.434242 0.691737
1.48101 4.39819 0.505089 0.620328 0.421213 0.636153
1.51082 4.42494 0.453015 0.763587 0.455619 0.436715
1.53642 4.40596 0.40835 0.912814 0.345154 0.123226
1.52162 4.40006 0.453317 0.803357 0.394601 0.393817
1.52802 4.40336 0.433018 0.85173 0.373853 0.272811
1.51999 4.38543 0.474163 0.772006 0.388155 0.497851
1.5355 4.38967 0.361765 0.862349 0.103335 -0.378918
1.55024 4.37234 0.41059 0.95623 0.280088 0.068377
1.53969 4.3915 0.381011 0.902898 0.202801 -0.170368
1.53368 4.34418 0.355677 0.717017 -0.0628432 -0.631613
1.51348 4.35067 0.341023 0.525977 -0.182407 -0.75217
1.43582 4.34205 0.331118 -0.0757541 -0.434067 -0.8733
1.4874 4.32755 0.336037 0.211791 -0.295916 -0.914393
1.37814 4.32344 0.36038 -0.379372 -0.451957 -0.786484
1.42212 4.31568 0.344206 -0.22029 -0.401826 -0.882969
1.4165 4.33332 0.337371 -0.207005 -0.453812 -0.861091
1.40137 4.32134 0.350769 -0.29131 -0.43094 -0.836306
1.33033 4.3342 0.383886 -0.55189 -0.493055 -0.656555
1.31577 4.33319 0.399235 -0.616262 -0.477555 -0.600103
1.30013 4.33271 0.415307 -0.684206 -0.462827 -0.539364
1.25823 4.33709 0.492218 -0.932699 -0.308111 -0.0938015
1.26456 4.33869 0.474033 -0.880576 -0.355326 -0.198594
1.25554 4.36975 0.527299 -0.852715 -0.0980021 0.390422
1.26109 4.36238 0.545037 -0.81972 -0.0156787 0.542709
1.25781 4.35093 0.521923 -0.882754 -0.17256 0.255102
1.30329 4.36138 0.576441 -0.366384 0.207 0.863388
1.29494 4.38387 0.566053 -0.395124 0.229168 0.837627
1.37486 4.40112 0.56562 0.189362 0.416464 0.883905
1.33932 4.4164 0.560062 -0.0156195 0.40397 0.882231
1.32871 4.3984 0.567646 -0.106162 0.348992 0.90132
1.43952 4.41483 0.529236 0.462326 0.458791 0.746489
1.39267 4.42853 0.543565 0.282649 0.476224 0.817095
1.42793 4.40216 0.541366 0.408655 0.430452 0.785363
1.44698 4.39402 0.536915 0.480258 0.418122 0.76008
1.48137 4.36941 0.523701 0.605358 0.368276 0.686794
1.52985 4.3181 0.499924 0.778419 0.263015 0.561238
1.51919 4.33911 0.500573 0.744797 0.304112 0.575615
1.49675 4.35371 0.515883 0.660529 0.335958 0.646166
1.5453 4.33523 0.456083 0.881215 0.266841 0.302782
1.54719 4.35307 0.438219 0.910779 0.276727 0.210155
1.55565 4.29594 0.383035 0.84248 0.030908 -0.493333
1.55135 4.33714 0.388874 0.882873 0.107441 -0.300662
1.55468 4.35386 0.414807 0.956093 0.241606 0.0426731
1.50617 4.31396 0.343967 0.321856 -0.218779 -0.896685
1.52263 4.32535 0.352533 0.533592 -0.129121 -0.755899
1.51434 4.29148 0.3526 0.356865 -0.154768 -0.880591
1.45406 4.29632 0.348189 -0.0713979 -0.296298 -0.923213
1.48042 4.30893 0.343398 0.122842 -0.274326 -0.925731
1.43315 4.29953 0.348203 -0.201795 -0.347222 -0.911439
1.38518 4.29191 0.37282 -0.411422 -0.350622 -0.822203
1.36566 4.27508 0.388294 -0.51399 -0.307591 -0.791514
1.34372 4.28861 0.399807 -0.584715 -0.347751 -0.71743
1.35337 4.26644 0.400702 -0.576646 -0.278835 -0.758564
1.324 4.29119 0.418089 -0.663025 -0.34335 -0.639461
1.26597 4.30924 0.526475 -0.926681 -0.154851 0.11414
1.26931 4.28586 0.527362 -0.949727 -0.140361 0.0405544
1.26923 4.32867 0.553804 -0.834981 -0.0227331 0.490154
1.29562 4.34181 0.575365 -0.505196 0.143178 0.776505
1.3361 4.32864 0.59226 -0.143872 0.234821 0.939536
1.33462 4.35468 0.584859 -0.129769 0.276397 0.927675
1.35868 4.3561 0.583377 0.0284873 0.306156 0.920893
1.42523 4.35893 0.563515 0.373905 0.345572 0.84146
1.40686 4.36636 0.56946 0.301883 0.356677 0.870018
1.41456 4.34416 0.574035 0.325078 0.315358 0.874891
1.49706 4.29698 0.539628 0.641027 0.227003 0.71283
1.48227 4.26597 0.56259 0.575181 0.168884 0.795137
1.55093 4.29727 0.468895 0.885336 0.198381 0.342371
1.54359 4.25709 0.502908 0.821811 0.143639 0.537762
1.53994 4.2997 0.493191 0.818894 0.222175 0.507562
1.54462 4.27539 0.492753 0.836512 0.172715 0.484614
1.56005 4.25359 0.385193 0.829415 0.00336427 -0.558452
1.55975 4.27829 0.393603 0.862565 0.0420303 -0.410483
1.51159 4.26709 0.354316 0.271706 -0.154361 -0.941943
1.4775 4.25678 0.357191 0.0229409 -0.171866 -0.951962
1.44319 4.25435 0.359678 -0.210648 -0.213317 -0.945886
1.40723 4.25479 0.375168 -0.368831 -0.231117 -0.882257
1.3218 4.23927 0.440383 -0.732146 -0.183089 -0.632137
1.30426 4.23186 0.459548 -0.809942 -0.153471 -0.56168
1.33379 4.25541 0.424232 -0.67004 -0.236353 -0.680125
1.28692 4.25155 0.489737 -0.89573 -0.161157 -0.327336
1.29606 4.24613 0.470984 -0.844118 -0.175342 -0.4638
1.28109 4.25308 0.569307 -0.839977 -0.0278258 0.467642
1.30947 4.2642 0.594299 -0.476957 0.0593107 0.805594
1.29049 4.2803 0.581211 -0.682726 0.0300018 0.670496
1.37226 4.30242 0.597885 0.0716399 0.213918 0.945911
1.38859 4.28659 0.599586 0.170927 0.194186 0.948094
1.43228 4.29974 0.580551 0.381088 0.230506 0.877628
1.45067 4.27669 0.576738 0.45011 0.187154 0.85489
1.46757 4.28348 0.56714 0.519907 0.202375 0.819212
1.52514 4.2204 0.528653 0.739949 0.0786245 0.645634
1.50361 4.24201 0.547624 0.655735 0.121034 0.726033
1.50692 4.22029 0.546371 0.667184 0.0797734 0.718375
1.53828 4.23012 0.515007 0.793194 0.0959978 0.590726
1.55514 4.23521 0.4835 0.883211 0.0948796 0.392691
1.55717 4.20715 0.482805 0.890963 0.0409324 0.380673
1.54718 4.19566 0.506935 0.829808 0.0286172 0.54164
1.57216 4.20917 0.435216 0.963746 0.0299619 0.00347109
1.566 4.22883 0.406384 0.881618 0.0205522 -0.339955
1.53509 4.2222 0.372418 0.492393 -0.0487299 -0.794314
1.56058 4.22671 0.387625 0.804686 -0.00154981 -0.575716
1.55886 4.19188 0.38767 0.766155 -0.00873915 -0.603971
1.48218 4.20915 0.363292 0.0165629 -0.075141 -0.964756
1.43206 4.21587 0.370928 -0.295523 -0.107893 -0.940238
1.44179 4.19558 0.36768 -0.261489 -0.0467936 -0.960517
1.4183 4.19425 0.379141 -0.359293 -0.0467604 -0.915267
1.3163 4.19916 0.452707 -0.774713 -0.0592562 -0.611725
1.27718 4.2142 0.52469 -0.981668 -0.0658696 -0.127884
1.29522 4.21569 0.483788 -0.873981 -0.0971411 -0.414344
1.28026 4.19038 0.521039 -0.970171 -0.0257029 -0.166208
1.27875 4.21961 0.546718 -0.931005 -0.0565124 0.130602
1.28215 4.22427 0.564762 -0.870101 -0.0272389 0.359431
1.32373 4.19802 0.606673 -0.358309 0.00955608 0.886365
1.32509 4.2325 0.60642 -0.326632 0.0639038 0.90524
1.34561 4.23834 0.61013 -0.14341 0.0891956 0.968113
1.3934 4.20313 0.608853 0.170088 0.0392404 0.965317
1.3662 4.23352 0.608997 -0.00631359 0.0874561 0.965769
1.45911 4.20222 0.58254 0.472424 0.0426179 0.863328
1.44093 4.22307 0.589837 0.400128 0.0825126 0.894214
1.50145 4.17707 0.555103 0.641969 -0.00503292 0.750295
1.5291 4.17197 0.527767 0.752939 -0.0145381 0.638453
1.5419 4.14586 0.512974 0.806003 -0.0639932 0.580962
1.54012 4.12174 0.512526 0.800626 -0.109769 0.582253
1.55804 4.1754 0.484018 0.892451 -0.00614732 0.381198
1.56687 4.16873 0.463171 0.945881 -0.0159751 0.240243
1.5676 4.16338 0.410056 0.886857 -0.000629764 -0.317752
1.52691 4.17176 0.368566 0.372785 0.0146655 -0.878626
1.53818 4.15585 0.374853 0.520139 0.0438021 -0.775403
1.51659 4.14712 0.361583 0.260677 0.0597834 -0.956242
1.4471 4.16102 0.366283 -0.229437 0.0550888 -0.964289
1.37943 4.15332 0.397087 -0.516512 0.086117 -0.839531
1.43062 4.17445 0.373839 -0.310998 0.0173227 -0.939777
1.34546 4.16785 0.425045 -0.658722 0.0388327 -0.730155
1.36122 4.14519 0.407689 -0.588985 0.112588 -0.793431
1.30499 4.17479 0.466022 -0.825514 0.0146245 -0.556998
1.27765 4.1649 0.537609 -0.967328 0.0272269 -0.00364041
1.31116 4.15671 0.598955 -0.508598 -0.00108654 0.787322
1.39794 4.17287 0.609469 0.197405 -0.010355 0.966494
1.35624 4.1465 0.610829 -0.0768729 -0.0485163 0.96924
1.33876 4.17159 0.613432 -0.200892 -0.0119275 0.972926
1.47974 4.1468 0.571803 0.55683 -0.0648332 0.822415
1.46297 4.17824 0.582177 0.486174 -0.00309936 0.859695
1.43435 4.1601 0.594718 0.370561 -0.0389 0.911097
1.45954 4.13665 0.580845 0.475047 -0.0848644 0.859148
1.47898 4.16906 0.573766 0.552226 -0.0210797 0.827631
1.45639 4.15891 0.583967 0.460667 -0.0411389 0.868921
1.52741 4.10514 0.52165 0.752417 -0.142372 0.624133
1.48333 4.11173 0.566537 0.574054 -0.133505 0.80573
1.51484 4.0909 0.530029 0.705328 -0.170184 0.66377
1.55719 4.11563 0.477199 0.897076 -0.108191 0.35326
1.5652 4.11662 0.459152 0.944887 -0.0990257 0.230113
1.57029 4.1041 0.442097 0.98203 -0.111029 0.125868
1.56138 4.09515 0.396099 0.865967 -0.0231775 -0.404077
1.56981 4.11994 0.427873 0.945676 -0.0641376 -0.0665357
1.53071 4.11102 0.367722 0.472774 0.0879847 -0.804952
1.51246 4.12468 0.358798 0.239548 0.101776 -0.962503
1.38104 4.13221 0.393728 -0.499593 0.152273 -0.839167
1.37204 4.11197 0.393643 -0.51969 0.219825 -0.815404
1.33262 4.12905 0.432219 -0.695194 0.158458 -0.676371
1.35498 4.10951 0.404998 -0.587684 0.227885 -0.765808
1.27279 4.0949 0.516719 -0.970023 0.159148 -0.122536
1.28415 4.12927 0.505175 -0.932316 0.107945 -0.250986
1.28092 4.10992 0.567093 -0.850606 0.0168843 0.43144
1.27685 4.11258 0.545884 -0.922212 0.0511355 0.163956
1.28007 4.08798 0.571735 -0.824075 0.0030757 0.532088
1.31579 4.09193 0.597844 -0.399758 -0.106411 0.852875
1.31662 4.1124 0.600261 -0.414565 -0.0741271 0.845834
1.29664 4.11639 0.588431 -0.660057 -0.0365857 0.68504
1.34139 4.0901 0.605353 -0.153187 -0.1354 0.961365
1.35884 4.11101 0.607849 -0.0496702 -0.110733 0.964359
1.38086 4.11417 0.607053 0.0947932 -0.114647 0.9623
1.37325 4.0947 0.604206 0.0558797 -0.141024 0.958392
1.40652 4.07797 0.596884 0.270913 -0.193039 0.936616
1.43429 4.10082 0.588518 0.377614 -0.151445 0.896159
1.42336 4.07362 0.587846 0.340663 -0.202291 0.902422
1.45839 4.09676 0.576056 0.47684 -0.16057 0.848374
1.47613 4.04771 0.555964 0.560828 -0.259321 0.784155
1.53235 4.04404 0.498676 0.787971 -0.257104 0.554095
1.48665 4.03638 0.540234 0.607898 -0.27871 0.726968
1.52467 4.02503 0.497318 0.765318 -0.293702 0.559607
1.50128 4.03753 0.526321 0.666091 -0.274213 0.669911
1.50971 4.01359 0.506721 0.710185 -0.317401 0.604347
1.55239 4.05479 0.461768 0.898706 -0.208063 0.301744
1.54166 4.0393 0.476041 0.845015 -0.251376 0.4163
1.55187 4.03881 0.451104 0.909227 -0.233579 0.251786
1.54087 4.02256 0.465439 0.85455 -0.278549 0.367746
1.55817 4.02533 0.418705 0.956758 -0.212526 0.0328246
1.5576 4.04564 0.403321 0.905833 -0.128093 -0.204567
1.53527 4.04402 0.362008 0.650481 0.0485058 -0.682812
1.54072 4.06509 0.368713 0.667332 0.044009 -0.670267
1.45753 4.08229 0.353504 -0.0826198 0.242495 -0.938384
1.48994 4.06587 0.347346 0.160074 0.228401 -0.937576
1.4104 4.08238 0.366343 -0.329561 0.294381 -0.879763
1.42892 4.08306 0.357827 -0.254687 0.286148 -0.916582
1.38874 4.08873 0.37895 -0.426579 0.283513 -0.839868
1.31751 4.08853 0.433989 -0.718514 0.276247 -0.614534
1.30273 4.07702 0.443185 -0.763454 0.304637 -0.555072
1.27324 4.07035 0.499409 -0.931572 0.223103 -0.187085
1.28349 4.08156 0.483092 -0.88359 0.228601 -0.322463
1.30844 4.06339 0.590528 -0.449232 -0.114532 0.818566
1.3216 4.0441 0.595795 -0.257972 -0.1937 0.938872
1.29737 4.05021 0.581524 -0.553172 -0.107774 0.748578
1.38927 4.04408 0.593664 0.193554 -0.251802 0.936712
1.35915 4.04273 0.59462 -0.00352904 -0.233453 0.940749
1.34785 4.05746 0.59935 -0.0910441 -0.195647 0.950645
1.3845 3.99273 0.57915 0.207795 -0.352613 0.909238
1.39826 4.01242 0.580651 0.259971 -0.317586 0.903625
1.43407 4.03591 0.572397 0.395474 -0.277107 0.856808
1.41437 4.02658 0.578266 0.31953 -0.292494 0.885741
1.51398 3.96483 0.474286 0.751948 -0.407453 0.508959
1.48253 3.97302 0.511602 0.619432 -0.399776 0.651989
1.50072 3.94297 0.472581 0.711174 -0.450589 0.521431
1.49451 3.96832 0.496294 0.670863 -0.405604 0.594504
1.5396 3.98726 0.438348 0.885241 -0.313267 0.245848
1.53835 3.9667 0.418254 0.906953 -0.329672 0.159624
1.55078 4.00338 0.399974 0.924105 -0.183398 -0.107511
1.54343 3.9906 0.378928 0.88801 -0.117932 -0.277893
1.54692 4.01797 0.371888 0.845813 -0.0403876 -0.473664
1.4943 4.01433 0.329648 0.302935 0.294912 -0.897662
1.52295 4.02684 0.351156 0.563288 0.128822 -0.734
1.4399 4.027 0.33493 -0.0731789 0.411991 -0.881965
1.44252 4.05016 0.344364 -0.118753 0.35215 -0.906988
1.38592 4.0545 0.366627 -0.386041 0.391539 -0.815527
1.36192 4.0455 0.372906 -0.463226 0.432148 -0.760043
1.33216 4.0382 0.390891 -0.570279 0.452629 -0.665786
1.31989 4.04121 0.405319 -0.628381 0.433974 -0.618207
1.34334 4.05629 0.392098 -0.561455 0.397588 -0.713471
1.28433 4.03217 0.43574 -0.76422 0.430043 -0.4722
1.28824 4.0518 0.447925 -0.791773 0.363477 -0.470181
1.25501 4.00922 0.509561 -0.912306 0.239089 0.12283
1.2601 4.03109 0.513705 -0.934789 0.222606 0.0550227
1.28505 3.99751 0.564351 -0.562308 -0.118668 0.740858
1.26766 4.01232 0.556192 -0.796932 -0.0126871 0.593785
1.32705 3.98108 0.575842 -0.145832 -0.310004 0.914852
1.34937 3.97759 0.573974 0.00272746 -0.34101 0.907665
1.32037 4.001 0.584133 -0.217984 -0.266853 0.929112
1.40471 3.96374 0.555501 0.311278 -0.413591 0.837484
1.37899 3.95609 0.563299 0.212333 -0.423842 0.875938
1.41449 3.98491 0.562296 0.337366 -0.374099 0.846683
1.38456 3.97408 0.570339 0.223443 -0.389792 0.888913
1.48854 3.92017 0.466765 0.677634 -0.495798 0.520101
1.49278 3.90093 0.444211 0.711388 -0.528656 0.452523
1.46359 3.92459 0.496746 0.571886 -0.495419 0.633523
1.46994 3.9148 0.48094 0.606167 -0.510887 0.582047
1.50806 3.91088 0.422346 0.791786 -0.475784 0.302895
1.504 3.91615 0.442784 0.751451 -0.489998 0.415775
1.5214 3.92901 0.413794 0.851148 -0.416134 0.20886
1.53247 3.94149 0.4025 0.905614 -0.367607 0.111037
1.53158 3.9635 0.352247 0.849971 -0.0731528 -0.441346
1.5195 3.94437 0.328371 0.812451 -0.00105342 -0.570905
1.50322 3.98788 0.329377 0.485762 0.206485 -0.777287
1.46273 3.99443 0.3193 0.155308 0.394463 -0.874848
1.48326 3.99408 0.319434 0.28097 0.347358 -0.888503
1.47707 3.97464 0.308811 0.301462 0.380432 -0.86999
1.45226 4.01038 0.327768 0.0441209 0.403266 -0.879495
1.41862 4.0169 0.330831 -0.177972 0.477792 -0.859437
1.38308 4.01287 0.343774 -0.306892 0.51181 -0.781083
1.29025 4.00255 0.403845 -0.662861 0.533214 -0.498572
1.26049 4.00339 0.462454 -0.859711 0.396503 -0.205977
1.24871 3.98482 0.465733 -0.885117 0.397997 -0.11028
1.24567 3.95739 0.517876 -0.837371 0.0571254 0.46244
1.24026 3.93527 0.517476 -0.812688 -0.00601221 0.576275
1.25623 3.94164 0.531091 -0.678009 -0.0911 0.663615
1.36658 3.92585 0.551594 0.181603 -0.480175 0.856659
1.35411 3.90738 0.541396 0.134291 -0.508057 0.839008
1.3459 3.88585 0.529615 0.118665 -0.548764 0.816838
1.31848 3.93065 0.553432 -0.126658 -0.406161 0.874286
1.34606 3.92525 0.550945 0.0544586 -0.454918 0.861195
1.40249 3.92788 0.537219 0.323907 -0.484734 0.793998
1.42285 3.91631 0.519834 0.414157 -0.512228 0.73596
1.39272 3.89976 0.521373 0.307171 -0.538086 0.763158
1.37242 3.89438 0.526559 0.230538 -0.544092 0.791549
1.44926 3.86874 0.457622 0.560802 -0.600895 0.5419
1.44444 3.85177 0.441436 0.56025 -0.63166 0.503074
1.46163 3.86292 0.436979 0.618964 -0.606235 0.470073
1.4716 3.85625 0.417841 0.668114 -0.613936 0.405289
1.51495 3.89407 0.372758 0.885695 -0.433886 0.0513745
1.4859 3.87057 0.4147 0.721288 -0.571706 0.357133
1.48267 3.8584 0.396096 0.733663 -0.579108 0.283713
1.47106 3.84364 0.399795 0.685156 -0.629755 0.345616
1.51561 3.92343 0.32867 0.840617 -0.0847071 -0.463646
1.51437 3.90774 0.339885 0.86483 -0.22287 -0.282099
1.51127 3.8839 0.352765 0.895069 -0.411409 -0.0429815
1.50251 3.91437 0.306415 0.782413 0.0246843 -0.589032
1.46275 3.9594 0.299339 0.267551 0.431439 -0.844936
1.41477 3.9789 0.309627 -0.0737638 0.551913 -0.811726
1.38605 3.95875 0.297484 -0.131676 0.654229 -0.736612
1.38714 3.98119 0.317906 -0.202736 0.596383 -0.761404
1.27976 3.97373 0.383399 -0.614313 0.623111 -0.452471
1.22409 3.93955 0.449458 -0.882961 0.453296 0.0152536
1.23536 3.94891 0.433794 -0.82477 0.499023 -0.111302
1.23579 3.95895 0.456755 -0.881256 0.435877 -0.0435098
1.23314 3.93891 0.489079 -0.861839 0.184226 0.309541
1.25124 3.90123 0.514883 -0.580719 -0.222361 0.700837
1.27189 3.88815 0.525632 -0.338635 -0.408373 0.833464
1.33497 3.86212 0.513698 0.0991774 -0.592417 0.787565
1.29155 3.89549 0.533792 -0.22903 -0.437387 0.85058
1.32292 3.88129 0.526074 -0.0121745 -0.523011 0.819969
1.31927 3.84446 0.500573 0.0412423 -0.615467 0.765619
1.30743 3.8683 0.516168 -0.0783905 -0.533948 0.804993
1.36383 3.8685 0.510227 0.218255 -0.594483 0.757952
1.41568 3.80402 0.404804 0.500368 -0.724714 0.436718
1.43623 3.80885 0.389491 0.580408 -0.707932 0.370167
1.45309 3.82609 0.399223 0.625932 -0.672669 0.376085
1.46968 3.83051 0.367248 0.728118 -0.610446 0.208374
1.47781 3.83059 0.331244 0.813518 -0.543098 0.0219538
1.48261 3.84194 0.353549 0.796936 -0.547788 0.0971308
1.4904 3.86882 0.29989 0.845075 -0.177162 -0.376478
1.40284 3.93342 0.275133 0.0636251 0.63837 -0.730214
1.37759 3.93307 0.271562 -0.0554956 0.722614 -0.686244
1.36932 3.94312 0.286547 -0.128342 0.707287 -0.679196
1.25042 3.9388 0.364821 -0.59744 0.716964 -0.33255
1.28463 3.95324 0.350072 -0.50533 0.705979 -0.46176
1.22516 3.93258 0.427384 -0.820015 0.524594 -0.0510164
1.23609 3.93258 0.378491 -0.658394 0.689849 -0.245301
1.20593 3.901 0.439434 -0.845973 0.376163 0.216156
1.21057 3.89534 0.458884 -0.830053 0.211397 0.377152
1.21412 3.92029 0.444341 -0.87367 0.43433 0.101718
1.25147 3.82547 0.477897 -0.293695 -0.540444 0.767521
1.28086 3.84311 0.496694 -0.178643 -0.546547 0.783564
1.2628 3.85119 0.501207 -0.30171 -0.491575 0.804975
1.28035 3.82679 0.482766 -0.136314 -0.589807 0.75681
1.37964 3.82025 0.458287 0.329536 -0.699401 0.616087
1.33495 3.82454 0.48077 0.149722 -0.676589 0.708438
1.32503 3.79567 0.45031 0.149882 -0.734347 0.640988
1.32632 3.81091 0.467928 0.134415 -0.702636 0.683643
1.35331 3.82023 0.468498 0.227036 -0.69134 0.662964
1.41176 3.76997 0.344577 0.542755 -0.780403 0.276638
1.39131 3.76945 0.368808 0.454476 -0.791407 0.365972
1.39989 3.75761 0.330988 0.517361 -0.804352 0.253507
1.43307 3.78022 0.3194 0.65325 -0.709995 0.132133
1.41443 3.76162 0.31636 0.582523 -0.779605 0.18366
1.44795 3.79372 0.311619 0.725242 -0.641993 0.0467457
1.4705 3.82881 0.281784 0.835557 -0.335358 -0.271215
1.46833 3.84324 0.261767 0.828339 -0.113825 -0.47395
1.45754 3.85335 0.245963 0.745826 0.0824443 -0.600615
1.44595 3.87093 0.244234 0.582957 0.282731 -0.673838
1.44738 3.83448 0.228106 0.782124 0.0363248 -0.58485
1.3987 3.90109 0.244672 0.211297 0.651655 -0.682838
1.38517 3.9146 0.255765 0.075695 0.699787 -0.675234
1.35669 3.92575 0.269898 -0.0949861 0.760536 -0.626225
1.3295 3.91982 0.270159 -0.153723 0.799642 -0.549779
1.3177 3.93189 0.292509 -0.258094 0.785801 -0.538139
1.34809 3.91174 0.25157 -0.0482576 0.798418 -0.584211
1.2726 3.93006 0.323283 -0.437351 0.784268 -0.403897
1.28817 3.93285 0.310316 -0.375111 0.795559 -0.459348
1.25206 3.92478 0.336711 -0.508168 0.776134 -0.329702
1.23083 3.9161 0.343197 -0.558668 0.781315 -0.250913
1.21641 3.90785 0.355168 -0.618922 0.74416 -0.156645
1.20738 3.90429 0.394947 -0.761757 0.602377 -0.0120651
1.18507 3.84843 0.434383 -0.817496 0.0507297 0.523408
1.19574 3.8896 0.420955 -0.842561 0.438538 0.179309
1.21343 3.82474 0.455009 -0.538221 -0.338586 0.693231
1.198 3.84972 0.453462 -0.76554 -0.0700313 0.60151
1.17739 3.83003 0.42609 -0.789294 -0.0441544 0.591038
1.2676 3.76853 0.425827 -0.049694 -0.755054 0.62813
1.27152 3.78611 0.444947 -0.0799937 -0.70209 0.672102
1.24996 3.78572 0.439836 -0.193006 -0.665202 0.677631
1.33685 3.77875 0.425184 0.21707 -0.775042 0.567752
1.31069 3.76096 0.40709 0.14642 -0.804965 0.545158
1.35599 3.77613 0.414696 0.294171 -0.787057 0.52549
1.31724 3.78285 0.438099 0.135743 -0.759631 0.616432
1.29384 3.77857 0.439573 0.0536434 -0.76116 0.639978
1.29036 3.75901 0.411048 0.0722417 -0.802465 0.572246
1.39932 3.74865 0.310617 0.534405 -0.817724 0.198791
1.38078 3.74434 0.32278 0.46276 -0.833843 0.252493
1.35613 3.73661 0.33234 0.37374 -0.857705 0.30609
1.36975 3.72983 0.290307 0.457444 -0.85809 0.177566
1.41354 3.75805 0.29418 0.615817 -0.751832 0.0954008
1.40632 3.75166 0.274558 0.617078 -0.749199 0.0370246
1.38714 3.73584 0.282454 0.523437 -0.835558 0.132088
1.42754 3.76923 0.269098 0.715395 -0.65874 -0.0545073
1.42975 3.78481 0.224721 0.787107 -0.400196 -0.329142
1.44318 3.78338 0.256452 0.800393 -0.562099 -0.166236
1.44057 3.80859 0.22614 0.809074 -0.188436 -0.45632
1.43211 3.82645 0.209597 0.752624 0.0900134 -0.591463
1.39513 3.8655 0.20345 0.395719 0.617319 -0.657181
1.38006 3.87896 0.21542 0.259318 0.686972 -0.630845
1.2793 3.91189 0.273885 -0.266873 0.872238 -0.402192
1.3168 3.90435 0.248995 -0.101595 0.84771 -0.487766
1.23694 3.90276 0.300597 -0.414393 0.85385 -0.25527
1.1703 3.86689 0.364397 -0.756135 0.614449 0.143092
1.1579 3.83293 0.383774 -0.811906 0.230562 0.404482
1.16963 3.85303 0.390821 -0.809553 0.373225 0.303476
1.18206 3.77539 0.401755 -0.503593 -0.510175 0.647375
1.17696 3.7609 0.388972 -0.462713 -0.600609 0.64373
1.18077 3.80639 0.417356 -0.659457 -0.244355 0.622526
1.2474 3.73977 0.387104 -0.0594652 -0.823237 0.549888
1.22922 3.76139 0.408353 -0.221062 -0.706795 0.625586
1.29067 3.7351 0.369802 0.117068 -0.856939 0.467619
1.27198 3.73803 0.380577 0.0416313 -0.843702 0.511118
1.26381 3.74645 0.399365 -0.0065393 -0.821393 0.565619
1.31104 3.73485 0.363856 0.193054 -0.864563 0.434817
1.3164 3.70906 0.29326 0.280055 -0.914899 0.243652
1.28171 3.69437 0.276072 0.182331 -0.950336 0.234617
1.30143 3.70023 0.272047 0.250714 -0.932168 0.202412
1.39041 3.74138 0.196447 0.696122 -0.665344 -0.209836
1.3838 3.73415 0.225388 0.61263 -0.74685 -0.0800497
1.40556 3.75808 0.198011 0.754111 -0.532962 -0.287295
1.39012 3.82609 0.167443 0.62348 0.38869 -0.584176
1.30687 3.886 0.213597 0.0025032 0.889254 -0.426261
1.27829 3.88779 0.222563 -0.0856593 0.915803 -0.348266
1.31261 3.87572 0.185405 0.111667 0.895983 -0.420088
1.20227 3.88154 0.269192 -0.369105 0.905187 -0.115841
1.18304 3.87794 0.284842 -0.448629 0.888169 -0.052602
1.21834 3.88865 0.278798 -0.373949 0.892995 -0.17787
1.16129 3.86071 0.316771 -0.614296 0.73888 0.115472
1.18621 3.87944 0.306316 -0.517872 0.838224 -0.0504867
1.1413 3.83643 0.344812 -0.758906 0.494679 0.314853
1.16038 3.76473 0.374425 -0.55786 -0.470645 0.611403
1.17652 3.74697 0.370374 -0.410535 -0.664307 0.597785
1.19514 3.71556 0.330946 -0.205623 -0.836869 0.46163
1.21012 3.73061 0.361962 -0.201452 -0.791988 0.529241
1.27422 3.70973 0.32139 0.111005 -0.91137 0.35828
1.25905 3.70068 0.29953 0.0816 -0.92908 0.315537
1.29551 3.70504 0.305774 0.199593 -0.930084 0.299587
1.24794 3.71674 0.343903 -0.00170726 -0.885221 0.439038
1.2771 3.6883 0.24437 0.196936 -0.956772 0.154331
1.29721 3.69232 0.230072 0.276551 -0.939667 0.0947445
1.26673 3.68451 0.226818 0.179148 -0.963637 0.11791
1.33253 3.7079 0.163545 0.497895 -0.814952 -0.170266
1.33583 3.70212 0.204896 0.434433 -0.891583 -0.0218935
1.31232 3.69447 0.168655 0.395718 -0.90093 -0.0962108
1.33281 3.70446 0.182688 0.462801 -0.855063 -0.0982033
1.37915 3.73908 0.16376 0.712746 -0.607172 -0.305329
1.38472 3.76536 0.15056 0.773448 -0.269878 -0.459313
1.37056 3.75241 0.137308 0.736038 -0.386469 -0.434844
1.36532 3.80425 0.125669 0.680341 0.289336 -0.572103
1.36571 3.786 0.113773 0.774142 0.085563 -0.57176
1.37619 3.81074 0.143023 0.667008 0.318392 -0.571345
1.35385 3.83785 0.143217 0.484581 0.667592 -0.540494
1.3372 3.8347 0.124539 0.491239 0.690845 -0.495113
1.32375 3.85709 0.157861 0.282917 0.814186 -0.447128
1.28737 3.86934 0.165267 0.131304 0.925829 -0.325613
1.26496 3.87477 0.18459 0.0222265 0.944296 -0.27087
1.28868 3.8745 0.18545 0.0656498 0.922664 -0.345533
1.16244 3.86814 0.25643 -0.390872 0.916507 0.0332474
1.1706 3.86877 0.235978 -0.311419 0.936425 0.0140317
1.19176 3.87476 0.246608 -0.311444 0.931633 -0.0648549
1.22446 3.88155 0.226926 -0.194604 0.956241 -0.170307
1.15093 3.8577 0.278351 -0.511276 0.819326 0.107861
1.12927 3.84206 0.29038 -0.621048 0.712775 0.23485
1.08884 3.78063 0.298631 -0.809774 0.0373137 0.55271
1.10167 3.79044 0.312298 -0.797435 0.112719 0.520299
1.11368 3.80123 0.323696 -0.782398 0.206235 0.47999
1.1145 3.74475 0.310606 -0.626605 -0.469185 0.533933
1.10857 3.73344 0.29587 -0.592997 -0.57352 0.511722
1.16375 3.69125 0.265633 -0.212734 -0.917384 0.319877
1.15973 3.70287 0.285158 -0.28167 -0.850224 0.385069
1.14595 3.72224 0.312371 -0.421775 -0.729644 0.48903
1.23712 3.68131 0.237113 0.0705651 -0.973295 0.174774
1.2541 3.68321 0.245876 0.119527 -0.972891 0.182189
1.22195 3.68683 0.257376 -0.00161362 -0.953371 0.240958
1.23415 3.67584 0.215621 0.0822057 -0.987779 0.12175
1.22536 3.69175 0.276765 -0.00962968 -0.94056 0.288135
1.24611 3.69098 0.275412 0.0624094 -0.948775 0.265935
1.21672 3.6729 0.182426 0.0560267 -0.99221 0.0508211
1.25906 3.68023 0.179 0.200318 -0.96345 -0.00165868
1.19789 3.67068 0.157145 0.0175626 -0.996957 0.00241323
1.33197 3.71418 0.129388 0.571511 -0.738132 -0.283851
1.32154 3.71981 0.0911291 0.607564 -0.684198 -0.38265
1.34386 3.76027 0.0869634 0.776906 -0.188801 -0.514846
1.34773 3.73272 0.115119 0.685544 -0.558164 -0.390394
1.33265 3.76951 0.0624438 0.810907 -0.051089 -0.562092
1.35655 3.76501 0.102434 0.788101 -0.143876 -0.528843
1.27027 3.86014 0.11619 0.269489 0.928639 -0.23691
1.30083 3.8443 0.111466 0.409275 0.801309 -0.355762
1.2799 3.86376 0.142772 0.193441 0.934772 -0.283906
1.21879 3.87442 0.175988 -0.0296634 0.986025 -0.110257
1.24208 3.87031 0.162974 0.0566097 0.966408 -0.176111
1.20098 3.87281 0.153487 0.0182339 0.993371 -0.0298428
1.19787 3.87359 0.185 -0.0953666 0.984686 -0.0451841
1.17472 3.86881 0.206702 -0.205994 0.961184 0.0206182
1.12432 3.85303 0.229982 -0.393776 0.869213 0.206363
1.142 3.85936 0.240477 -0.382624 0.90413 0.122862
1.08242 3.7932 0.278016 -0.749869 0.232601 0.514973
1.0911 3.74069 0.278715 -0.64629 -0.446723 0.523616
1.07728 3.76059 0.274956 -0.750772 -0.185536 0.554364
1.09255 3.72189 0.264501 -0.571216 -0.673342 0.460241
1.11193 3.71905 0.279531 -0.511874 -0.701779 0.464336
1.18443 3.67761 0.202849 -0.0735579 -0.971267 0.134946
1.18925 3.674 0.181317 -0.0356894 -0.984744 0.0740958
1.20558 3.67627 0.207386 -0.00641505 -0.979639 0.127005
1.1673 3.68552 0.245787 -0.174627 -0.940578 0.263357
1.18193 3.67542 0.109197 0.0107526 -0.982061 -0.108815
1.20756 3.67428 0.133555 0.0729165 -0.981474 -0.0695135
1.23354 3.67827 0.123143 0.169978 -0.962926 -0.122725
1.30088 3.72045 0.058491 0.583063 -0.678076 -0.4364
1.28414 3.71129 0.0622799 0.49288 -0.74713 -0.385111
1.28162 3.7195 0.0388751 0.535666 -0.696003 -0.451752
1.313 3.76303 0.0403284 0.775951 -0.149558 -0.544567
1.30912 3.79285 0.0418633 0.742459 0.238116 -0.521235
1.30618 3.78038 0.0273191 0.794252 0.0621578 -0.558262
1.28027 3.83749 0.0631093 0.526387 0.751799 -0.314976
1.27074 3.84701 0.0783454 0.429656 0.828232 -0.262989
1.28407 3.82788 0.0371611 0.643341 0.667757 -0.354062
1.23045 3.86599 0.122641 0.173457 0.96268 -0.108217
1.22353 3.86616 0.0969853 0.244866 0.95171 -0.0686944
1.23441 3.86361 0.0790446 0.323419 0.93608 -0.0933861
1.13894 3.86486 0.180777 -0.18278 0.955234 0.158642
1.11942 3.86483 0.168332 -0.175594 0.945032 0.230266
1.06967 3.82918 0.219554 -0.554255 0.692835 0.42517
1.08801 3.83815 0.218059 -0.478356 0.766428 0.351152
1.0511 3.80232 0.225388 -0.70611 0.364904 0.493165
1.06453 3.80648 0.240347 -0.684232 0.43692 0.478987
1.05447 3.77618 0.249356 -0.802014 0.0393011 0.561613
1.06368 3.73605 0.237969 -0.670008 -0.478932 0.468822
1.04273 3.76822 0.232107 -0.798966 -0.0816947 0.558265
1.08299 3.70323 0.198246 -0.467027 -0.806234 0.265968
1.08891 3.69452 0.179241 -0.396655 -0.873387 0.188518
1.11261 3.68543 0.191225 -0.304437 -0.931104 0.17788
1.14225 3.67771 0.141139 -0.153337 -0.971565 0.0140458
1.16199 3.67361 0.122076 -0.0685345 -0.990182 -0.0551893
1.15735 3.67634 0.172004 -0.132779 -0.972113 0.0808262
1.1818 3.67099 0.141458 -0.0209898 -0.99726 -0.0231969
1.15057 3.68108 0.0724187 -0.0581849 -0.972902 -0.174769
1.17311 3.682 0.0706495 0.0194144 -0.963518 -0.200719
1.12711 3.68511 0.0548718 -0.119906 -0.968595 -0.198606
1.20844 3.69645 0.0238746 0.194379 -0.903472 -0.359231
1.24645 3.71113 0.024034 0.390272 -0.776988 -0.4297
1.22566 3.69253 0.0444683 0.235833 -0.903696 -0.325374
1.26838 3.7206 0.0222025 0.50776 -0.6986 -0.476535
1.2521 3.73662 -0.0172394 0.533403 -0.615804 -0.557214
1.28404 3.75431 0.00889399 0.691587 -0.308146 -0.551855
1.2688 3.74968 -0.00616017 0.631057 -0.411812 -0.562626
1.28692 3.79049 0.00443851 0.781799 0.140411 -0.525775
1.24277 3.85491 0.0477124 0.471164 0.839067 -0.140551
1.26741 3.83732 0.0350853 0.600305 0.718366 -0.272167
1.16531 3.8784 0.105429 0.123514 0.977175 0.132289
1.18838 3.87279 0.103582 0.16648 0.970655 0.0514535
1.13555 3.87478 0.125045 0.00395803 0.960064 0.215332
1.12879 3.86976 0.144014 -0.0743962 0.956014 0.220399
1.07719 3.85448 0.168492 -0.29641 0.843989 0.383359
1.02969 3.81361 0.189757 -0.64544 0.44905 0.523331
1.01418 3.79645 0.18287 -0.74277 0.191172 0.549322
1.01837 3.74178 0.170733 -0.718851 -0.507656 0.3712
1.04583 3.70727 0.123843 -0.487356 -0.838269 0.0990928
1.04781 3.71227 0.156745 -0.544267 -0.773736 0.212675
1.06542 3.69896 0.143816 -0.434085 -0.868687 0.123236
1.13958 3.67728 0.105107 -0.12678 -0.979646 -0.0775982
1.09353 3.68652 0.137291 -0.311284 -0.939531 0.0543301
1.10372 3.69741 0.0205622 -0.164708 -0.944346 -0.266329
1.1246 3.69527 0.0231923 -0.0964137 -0.942559 -0.27856
1.14516 3.69856 0.0114368 -0.0147417 -0.927099 -0.327917
1.18355 3.72522 -0.0402332 0.218433 -0.797703 -0.511816
1.16537 3.71793 -0.0381121 0.115686 -0.861758 -0.4764
1.20335 3.72573 -0.0309833 0.302117 -0.762758 -0.515467
1.25856 3.77651 -0.0357446 0.734459 -0.165981 -0.585174
1.2326 3.76529 -0.0565906 0.586883 -0.410909 -0.613276
1.24754 3.75908 -0.0368659 0.618873 -0.397917 -0.584674
1.25442 3.81287 -0.0346072 0.77391 0.259127 -0.457944
1.24424 3.80828 -0.0589525 0.798497 0.0993352 -0.528541
1.25667 3.79364 -0.0479243 0.815753 -0.0122567 -0.576402
1.23307 3.85442 0.00671967 0.598512 0.747743 -0.13873
1.20621 3.87462 0.0179643 0.481548 0.862921 0.0221999
1.2138 3.87075 0.036083 0.431027 0.899595 -0.00296508
1.25036 3.84131 -0.00187765 0.679108 0.669214 -0.243561
1.18453 3.87812 0.0524362 0.328946 0.922695 0.0953758
1.19172 3.87919 0.0332028 0.402151 0.899914 0.079318
1.15959 3.88168 0.0788888 0.203344 0.953776 0.170604
1.07704 3.87598 0.121363 -0.0953981 0.902109 0.402485
1.06871 3.88336 0.102931 -0.0475524 0.885256 0.441789
1.12775 3.88254 0.0964502 0.0878585 0.948129 0.264397
0.99806 3.84743 0.13244 -0.481538 0.611356 0.626731
1.02127 3.84725 0.144507 -0.431252 0.677167 0.560903
1.00507 3.81165 0.161895 -0.667939 0.316722 0.571169
0.996389 3.75277 0.141343 -0.746311 -0.465994 0.355372
1.00897 3.7307 0.117667 -0.640816 -0.711876 0.182111
1.03073 3.71413 0.106147 -0.519191 -0.819591 0.0791069
1.0184 3.71943 0.0653811 -0.499343 -0.850785 -0.0419791
1.01954 3.72034 0.0853267 -0.53155 -0.816346 0.0306029
1.09348 3.6958 0.0401281 -0.217573 -0.943373 -0.203783
1.07256 3.69946 0.0586082 -0.304308 -0.925583 -0.132407
1.08262 3.71926 -0.0274587 -0.187605 -0.897818 -0.371458
1.07265 3.73082 -0.0475914 -0.201105 -0.873925 -0.414604
1.10323 3.7201 -0.0346185 -0.109657 -0.888378 -0.408188
1.19686 3.76664 -0.0923775 0.437342 -0.604589 -0.661647
1.18543 3.74495 -0.0687522 0.308768 -0.710053 -0.586418
1.17723 3.76038 -0.0910854 0.326018 -0.668507 -0.629662
1.17022 3.7334 -0.05926 0.198772 -0.784954 -0.540601
1.22918 3.80288 -0.0819443 0.76706 -0.0965643 -0.58669
1.22159 3.84605 -0.0723736 0.807621 0.368355 -0.311316
1.23359 3.82711 -0.0635665 0.799585 0.254322 -0.412521
1.17884 3.89488 -0.0126786 0.528442 0.833245 0.144676
1.20354 3.87428 -0.0106772 0.578185 0.782159 -0.00301938
1.14198 3.89767 0.0315346 0.332536 0.887668 0.264649
1.12289 3.90174 0.045295 0.259563 0.90171 0.328359
1.07347 3.89056 0.0847619 0.0266892 0.878771 0.445468
1.10496 3.89843 0.0608326 0.172741 0.898936 0.372536
1.01467 3.8635 0.116203 -0.323794 0.701322 0.587533
1.03767 3.89434 0.0849022 -0.0535016 0.825676 0.551361
0.982067 3.85486 0.11253 -0.480934 0.548533 0.65864
0.981796 3.83586 0.122589 -0.586615 0.39699 0.620235
0.967322 3.82367 0.115303 -0.696811 0.179779 0.608227
0.967131 3.76971 0.0986807 -0.773534 -0.461281 0.308156
0.951008 3.80758 0.098907 -0.812957 -0.106648 0.513907
0.96465 3.78961 0.112341 -0.802166 -0.198468 0.461165
0.998245 3.73395 0.0535767 -0.564012 -0.796503 -0.0237886
0.982425 3.74721 0.0489191 -0.621355 -0.744219 0.0102151
0.986451 3.74348 0.0686753 -0.642749 -0.723066 0.0715516
0.967775 3.75914 0.0629466 -0.709992 -0.661776 0.110822
1.04902 3.72685 -0.0221776 -0.305581 -0.882521 -0.32443
1.06687 3.71722 -0.0157012 -0.252843 -0.905415 -0.326014
1.04912 3.71751 0.00872814 -0.334111 -0.894244 -0.24068
1.03026 3.72288 0.0178473 -0.404763 -0.876041 -0.195688
1.03237 3.73048 -0.0104442 -0.371388 -0.867836 -0.274719
1.07927 3.75829 -0.0968373 -0.127035 -0.808805 -0.545505
1.05752 3.75985 -0.0917932 -0.207091 -0.812974 -0.514064
1.07446 3.74675 -0.0776716 -0.163447 -0.836622 -0.492365
1.04441 3.74187 -0.0600253 -0.285098 -0.858293 -0.421609
1.12239 3.75703 -0.104195 0.049277 -0.783208 -0.600503
1.16587 3.78636 -0.1252 0.357022 -0.59662 -0.700109
1.15154 3.79419 -0.136453 0.308392 -0.601573 -0.70889
1.14696 3.77551 -0.118044 0.228918 -0.671618 -0.661317
1.20154 3.81752 -0.116004 0.705111 -0.169623 -0.613471
1.18303 3.80155 -0.124541 0.524733 -0.425709 -0.668177
1.2069 3.86328 -0.0899414 0.815377 0.408265 -0.263755
1.19757 3.87539 -0.10203 0.832144 0.406597 -0.226855
1.16646 3.9054 -0.027193 0.554774 0.806425 0.196556
1.13707 3.91698 -0.0172128 0.479324 0.803762 0.302544
1.11534 3.9148 0.0148009 0.347239 0.847918 0.37256
1.15282 3.91628 -0.0351901 0.558867 0.781541 0.250041
1.01779 3.9213 0.048319 0.0395561 0.761368 0.642142
1.04192 3.91942 0.0429514 0.108393 0.79074 0.57704
1.04751 3.90812 0.0582051 0.0662696 0.819362 0.547249
0.997733 3.89958 0.0679708 -0.159068 0.68462 0.666004
1.02311 3.90847 0.0642695 -0.013072 0.78433 0.611061
0.961365 3.87174 0.0842586 -0.462166 0.497871 0.700704
0.949415 3.84961 0.0843877 -0.637634 0.249953 0.635345
0.928669 3.83536 0.0730335 -0.824382 -0.0153333 0.565485
0.922879 3.83151 0.0541978 -0.818665 -0.166618 0.453855
0.971532 3.7582 0.00143556 -0.588144 -0.7766 -0.150679
0.955338 3.77157 0.0199335 -0.686103 -0.685029 -0.0204626
0.936759 3.78672 0.0425727 -0.801032 -0.577766 0.134547
0.940563 3.78612 0.0189808 -0.743495 -0.629222 0.0276891
1.00422 3.75815 -0.0492202 -0.426758 -0.8142 -0.348585
1.00442 3.76636 -0.068317 -0.40862 -0.801982 -0.40096
1.01348 3.74483 -0.0301977 -0.413882 -0.83913 -0.306811
1.02343 3.74905 -0.0522418 -0.361211 -0.83811 -0.377933
1.02435 3.75813 -0.0742141 -0.33809 -0.82498 -0.438951
1.03479 3.79538 -0.132348 -0.242766 -0.742687 -0.597124
1.05649 3.79031 -0.134764 -0.165185 -0.746625 -0.620939
1.01446 3.78962 -0.117598 -0.328415 -0.761962 -0.54308
1.11803 3.80569 -0.154636 0.164544 -0.626793 -0.721652
1.16481 3.83121 -0.154533 0.536626 -0.338584 -0.694582
1.14983 3.83414 -0.167712 0.435376 -0.428971 -0.746762
1.18717 3.88813 -0.116313 0.840341 0.404626 -0.209221
1.17703 3.8877 -0.14681 0.825784 0.18958 -0.402228
1.14582 3.93792 -0.0826125 0.697893 0.641613 0.236772
1.1387 3.92938 -0.046807 0.574539 0.747205 0.30792
1.13275 3.94361 -0.0639251 0.618221 0.700763 0.335537
1.01352 3.94484 0.0200762 0.131408 0.704263 0.681662
1.04621 3.93824 0.0151974 0.218279 0.751757 0.594661
1.02702 3.93118 0.0310541 0.120913 0.748842 0.633169
0.975037 3.93055 0.0348565 -0.098127 0.607194 0.747996
0.97346 3.91519 0.0476936 -0.180659 0.608565 0.730403
0.994204 3.92446 0.0425199 -0.0411707 0.682104 0.69935
0.907645 3.87504 0.0372944 -0.762595 0.0636828 0.592294
0.92524 3.88151 0.0486991 -0.611448 0.248596 0.660561
0.908407 3.82227 0.0063205 -0.845831 -0.502703 0.104703
0.910896 3.83315 0.0246282 -0.835725 -0.316 0.286862
0.901762 3.85452 0.0190191 -0.846155 -0.19796 0.358164
0.92287 3.82415 -0.0737939 -0.672123 -0.660228 -0.305306
0.92788 3.80826 -0.0348871 -0.709701 -0.644264 -0.155768
0.935716 3.80591 -0.060841 -0.639046 -0.70282 -0.294734
0.992542 3.80487 -0.125812 -0.394955 -0.734407 -0.545117
0.99066 3.78673 -0.0932074 -0.43014 -0.763743 -0.453191
0.975701 3.78473 -0.0727849 -0.496892 -0.760124 -0.380208
1.04397 3.84786 -0.192851 -0.143551 -0.630297 -0.754773
1.00502 3.84204 -0.170994 -0.303485 -0.654237 -0.668829
1.00992 3.82293 -0.155276 -0.303286 -0.69167 -0.634315
1.0315 3.8315 -0.172362 -0.209302 -0.667508 -0.694147
1.02854 3.86069 -0.198278 -0.191722 -0.608929 -0.755298
1.07808 3.85846 -0.200984 0.0700567 -0.556965 -0.790815
1.10675 3.87883 -0.213113 0.280244 -0.452003 -0.834383
1.12516 3.88309 -0.20572 0.435676 -0.335958 -0.779717
1.14267 3.88438 -0.193214 0.593045 -0.204832 -0.696258
1.16109 3.90228 -0.181264 0.818216 0.0288118 -0.538639
1.16118 3.92754 -0.156188 0.864077 0.328821 -0.204249
1.15454 3.92105 -0.18497 0.828527 0.09744 -0.463108
1.1454 3.94498 -0.105707 0.76208 0.570409 0.179708
1.13389 3.95561 -0.0922815 0.705991 0.616125 0.296948
1.1036 3.9673 -0.0665696 0.588096 0.6461 0.452439
1.07134 3.97632 -0.0432151 0.473775 0.652008 0.573321
1.03179 3.96112 -0.00576661 0.265391 0.679555 0.660217
1.04154 3.97809 -0.0256783 0.36048 0.641346 0.657526
1.06167 3.96651 -0.0234042 0.394044 0.692679 0.59706
0.958097 3.95322 0.0156081 -0.0870225 0.54141 0.797273
0.979543 3.96541 0.00862428 0.0741578 0.602502 0.778853
0.894106 3.91914 0.00977277 -0.659346 0.156503 0.651416
0.877791 3.91462 -0.000730052 -0.812558 0.00308307 0.570567
0.910342 3.92329 0.0203505 -0.508365 0.307668 0.73109
0.880752 3.86625 -0.033805 -0.886243 -0.445714 0.0428615
0.879416 3.88526 -0.01968 -0.867317 -0.252394 0.250807
0.871353 3.88416 -0.0479911 -0.900777 -0.42783 0.0126523
0.897987 3.85149 -0.060407 -0.785078 -0.549331 -0.149422
0.933849 3.85202 -0.127559 -0.581425 -0.63087 -0.480671
0.969059 3.82227 -0.127983 -0.469011 -0.695191 -0.52353
0.905125 3.86946 -0.118616 -0.681321 -0.589752 -0.421851
0.996488 3.88789 -0.206973 -0.294492 -0.561883 -0.751673
0.976498 3.87381 -0.187948 -0.38522 -0.594994 -0.689464
1.01076 3.90049 -0.222381 -0.227697 -0.533206 -0.800537
1.0821 3.9173 -0.237623 0.207064 -0.407576 -0.867801
1.07314 3.89055 -0.223289 0.105808 -0.479482 -0.837174
1.13299 3.94157 -0.218961 0.737482 -0.0672109 -0.624763
1.12202 3.91957 -0.22035 0.554542 -0.211235 -0.724543
1.14494 3.95535 -0.185228 0.871556 0.222225 -0.257279
1.13193 3.97784 -0.136905 0.825637 0.469025 0.189739
1.14078 3.98386 -0.172427 0.928706 0.362608 0.0195595
1.14276 3.97096 -0.156815 0.893475 0.411414 0.0531734
1.08244 4.00078 -0.0824273 0.607823 0.553472 0.538378
1.11258 3.98944 -0.102912 0.709844 0.559757 0.422241
1.09592 4.00497 -0.100324 0.679396 0.525511 0.48813
1.00464 3.99793 -0.0264981 0.281458 0.559106 0.758268
0.985574 4.00698 -0.0245047 0.231729 0.520238 0.806852
1.02404 3.99933 -0.0361534 0.360062 0.570795 0.716869
1.04407 3.99304 -0.0405615 0.420799 0.603172 0.668269
0.925413 3.97328 0.000533971 -0.196313 0.434778 0.850685
0.942378 3.98873 -0.00756185 -0.0512443 0.470724 0.844331
0.964457 3.98438 -0.00486114 0.0650449 0.535788 0.820443
0.910775 3.98747 -0.00737835 -0.239885 0.383182 0.873747
0.881201 3.96542 -0.0142562 -0.577288 0.192534 0.708748
0.862968 3.95052 -0.0226751 -0.802334 0.0106132 0.576857
0.857964 3.96908 -0.0313738 -0.782989 0.0270226 0.587772
0.862517 3.93188 -0.0333579 -0.852767 -0.129666 0.389771
0.877668 3.90581 -0.111371 -0.790347 -0.47881 -0.30179
0.884921 3.90408 -0.129465 -0.739049 -0.514256 -0.413335
0.896072 3.88747 -0.128474 -0.7013 -0.555042 -0.438107
0.88362 3.92005 -0.146342 -0.725083 -0.493388 -0.471601
0.929069 3.8856 -0.16086 -0.567611 -0.569258 -0.567401
0.908619 3.89502 -0.148584 -0.643557 -0.545866 -0.508587
0.954422 3.92898 -0.217223 -0.430675 -0.487906 -0.745177
0.975037 3.94112 -0.233242 -0.340501 -0.45993 -0.799971
0.99488 3.94303 -0.243434 -0.259799 -0.45212 -0.839931
1.02903 3.95301 -0.255482 -0.0689332 -0.402318 -0.885498
1.05175 3.96322 -0.260115 0.0882576 -0.348578 -0.901837
1.00625 3.96566 -0.260215 -0.197098 -0.404055 -0.888966
1.05071 3.94308 -0.251847 0.0557824 -0.395831 -0.884039
1.07246 3.95402 -0.256757 0.207737 -0.341745 -0.900685
1.10858 4.008 -0.251845 0.70563 -0.0706943 -0.647387
1.11429 3.9695 -0.23969 0.651289 -0.105566 -0.679404
1.09574 3.97068 -0.252102 0.460382 -0.221453 -0.791926
1.12171 3.99751 -0.240455 0.811969 -0.00411158 -0.579388
1.12742 3.99902 -0.214954 0.870649 0.142944 -0.308671
1.12375 4.00783 -0.162726 0.880161 0.3737 0.175562
1.11707 4.03201 -0.172908 0.893802 0.328522 0.191968
1.10889 4.01793 -0.135768 0.79427 0.433627 0.371321
1.08805 4.04604 -0.124688 0.741518 0.398313 0.52502
1.09837 4.02379 -0.119754 0.740686 0.460163 0.482413
1.07691 4.02329 -0.09781 0.648035 0.479673 0.56556
1.04328 4.02701 -0.0665136 0.511894 0.495991 0.696417
0.987504 4.02557 -0.0380711 0.286939 0.46892 0.81815
0.898751 4.01271 -0.0198726 -0.24108 0.324099 0.901878
0.9199 4.01919 -0.0229415 -0.0940161 0.366421 0.891992
