ply
format ascii 1.0
element vertex 394
property double x
property double y
property double z
property double nx
property double ny
property double nz
end_header
0.313741266388573 -0.1369393373531621 0.0317508253040924 -0.045922160636504006 -0.15703763253679642 0.0317508253040924
0.8902241545605429 0.8386418758366402 0.16583038666765532 0.012594076569194059 0.010929312457925926 0.16583038666765532
0.991328272461869 0.18964767268455063 0.14558265733808567 0.06859925634750816 -0.043331393800894166 0.14558265733808567
0.28014450324202866 0.22758338569426217 0.07278751119515478 0.09416322786595614 0.11667494379538829 0.07278751119515478
0.8757173954223254 1.0450693671155122 0.03910038652533353 0.09194945966107688 0.13339503146438134 0.03910038652533353
-0.006831060454874582 0.5039372437252154 0.1665259896410712 -0.006846146607861963 5.318329888763589e-05 0.1665259896410712
0.9659690987378178 0.9294030770706213 -0.09957438685639591 0.09828346217642786 0.09057085802047621 -0.09957438685639591
0.8528150243764387 0.8386000724124234 -0.16630377420785009 -0.007930914325274268 -0.007611377008620177 -0.16630377420785009
0.8869233727525632 0.782834942864235 -0.165373171021146 -0.016730812711075457 -0.012229962805155706 -0.165373171021146
1.1561511713196426 0.38399601198106187 -0.010639700101691154 0.1637867191852498 -0.028956608538569746 -0.010639700101691154
0.26880655931507347 0.7659130070993536 -0.07733875355871271 0.09686742434744226 -0.11141452811933919 -0.07733875355871271
-0.0559379252953921 0.3218148927754836 -0.14406988463842124 -0.07979675009723794 -0.025575863464773287 -0.14406988463842124
0.23085590022199615 0.2780236606450768 -0.07027279251818772 0.11659005410013876 0.0961575358170135 -0.07027279251818772
0.47885124188393924 -0.16299912141562523 -0.033151418992772894 -0.005207555500939561 -0.16325330796724463 -0.033151418992772894
0.6272980909129946 0.8171435895030312 0.05225817620688872 -0.05895291291656922 -0.14687210373641058 0.05225817620688872
0.7887069164489883 -0.06672146508795651 -0.09630990054178123 0.06174417866393506 -0.12120163875346757 -0.09630990054178123
0.2605020255933683 0.7643895867745569 -0.0851670642442143 0.09618085783594314 -0.10617717048283845 -0.0851670642442143
0.9477372596580884 0.6266107905375576 -0.16301320230541905 -0.03339596488965163 -0.0094436847151658 -0.16301320230541905
0.8220741095532044 0.7692455279998358 -0.14609712879493394 -0.06153790398332263 -0.051444077491909816 -0.14609712879493394
0.7759572606560413 -0.09470829343317766 -0.05968171591297137 0.06550030506386789 -0.14115799871066959 -0.05968171591297137
0.5549835976226535 1.0469253079872654 0.15908947078892782 0.0049696071958048975 0.049432995723464504 0.15908947078892782
-0.1647105312104784 0.530587582221118 -0.020396359141743915 -0.1652390691179945 0.007603706238238063 -0.020396359141743915
0.9747791859063486 0.6122698793267074 0.1662248691154877 -0.011801797428574646 -0.0027907423334385143 0.1662248691154877
0.21608134216190678 0.32307137187056856 -0.0199762599218544 0.1404297858702151 0.08751115390484702 -0.0199762599218544
0.15848084784634003 -0.07142388868794536 -0.017895998858324307 -0.0850090337699278 -0.14223563259656108 -0.017895998858324307
0.642014372606424 -0.14897467848866452 -0.02780228746713548 0.03512918579338008 -0.16053270973501546 -0.02780228746713548
-0.005895464680458207 0.46381292794784346 -0.16651159002136715 -0.0071697381011538875 -0.0005128566025501472 -0.16651159002136715
0.6615321928468685 0.8461461462413645 0.11768344037319073 -0.049907664083165965 -0.10694676575506762 0.11768344037319073
0.4316157789437976 0.1077843496200967 -0.13191208449040934 0.01749700500452628 0.10035354781493509 -0.13191208449040934
0.6625808191725667 1.0004721823793814 0.16459166729964658 0.008100211448328547 0.02493486330005823 0.16459166729964658
0.7334930590567819 0.026162493575950685 -0.16425618223322416 0.012484050447522098 -0.025334420466380427 -0.16425618223322416
-0.024901698958239682 0.5056235162123215 0.16479132878020644 -0.024930391073783326 0.0002670908832285759 0.16479132878020644
0.8415327182622445 0.3448632570293867 -0.11037102002014723 -0.1137034306969981 0.05164828714703889 -0.11037102002014723
0.876734290830599 0.4895758265988288 0.11233374063006535 -0.1230744141477302 0.003405447992257174 0.11233374063006535
0.3700961293283911 0.9164363776535334 0.15398318967643293 0.018990828900643315 -0.0608794176427136 0.15398318967643293
0.006152435775593268 0.44354387146287816 -0.1666408059856174 0.002916910003758656 0.00033345805068825857 -0.1666408059856174
-0.09528310932343431 0.20097963573119182 0.01292796848462613 -0.1484842348479288 -0.07458604031763187 0.01292796848462613
0.8597979475408999 0.636377663541302 0.12042202925945975 -0.10774278078922776 -0.04083877856420305 0.12042202925945975
-0.10252682960881154 0.7430317830939913 0.07327560945330655 -0.1388267604349086 0.05599636974101773 0.07327560945330655
-0.16107231824017132 0.4162009032850469 -0.010065637401786431 -0.16504171934360173 -0.02092108022023089 -0.010065637401786431
0.9898251092490646 0.4612552189308079 0.16644231073528426 -0.008618021178121445 0.0006816787001954082 0.16644231073528426
0.6965025187526478 0.7696942946056503 -0.010880306048116122 -0.09793721963763198 -0.1344161364112484 -0.010880306048116122
0.5577164502180734 0.9106816759365843 -0.143194544776917 -0.011868805284252645 -0.0844525404297217 -0.143194544776917
0.46314118819284145 -0.028873893415111818 -0.16391567623042533 -0.002096628149239822 -0.030083766620952978 -0.16391567623042533
0.8591384634913015 0.7649400234237902 -0.15777477565749187 -0.043222631484695836 -0.03188576597079116 -0.15777477565749187
-0.045901789880381516 0.7782269113420359 -0.12277309968584833 -0.10042363640703894 0.05118238976536133 -0.12277309968584833
-0.02690752144184283 0.5514793364916334 0.16405016572850248 -0.029276938209523762 0.002860383069515897 0.16405016572850248
0.7903246968527108 1.08672308294853 0.06220319850825885 0.06857545119962337 0.1385855236519601 0.06220319850825885
0.26826104387519656 0.021835977650309146 0.16368967258450107 -0.013676981049012424 -0.02822072033704265 0.16368967258450107
0.6509085229263127 1.0382637039491671 0.15586739797466953 0.015932095234650164 0.05682693347188282 0.15586739797466953
0.42271996013826 0.1747526112915107 0.01794631256049619 0.03830400758792902 0.1612095240547612 0.01794631256049619
0.27903569784040316 0.8320338241735217 0.13245380528598188 0.05604584821192822 -0.0842177543113474 0.13245380528598188
0.1768762609096443 0.1359927128520197 0.16613788958627113 0.008806592028284231 0.009920854723516202 0.16613788958627113
0.8949445697421243 0.28170836029894725 -0.1593795834310609 -0.042660812272898606 0.02357925485115632 -0.1593795834310609
0.15680229150869957 0.36411521203855013 0.1031897341196475 0.1216890495937556 0.04818123866260312 0.1031897341196475
0.7877463838001137 0.1620687142568739 0.15692046813253563 -0.036407841595845515 0.04275761369832818 0.15692046813253563
0.6897329911281362 1.1389826801109226 -0.006060828809414208 0.04740971376114057 0.15966641216300775 -0.006060828809414208
0.8508269734355984 0.6265244784872852 0.10786480886047851 -0.11951976419670843 -0.043104370470213635 0.10786480886047851
0.06553931977849564 0.3878673592694025 0.1585745031049377 0.04967427272981418 0.012820739899238107 0.1585745031049377
0.14437823949105566 0.5538039808005405 0.08991637884076216 0.13875206220174002 -0.020992566034355644 0.08991637884076216
0.055897283198325876 0.07066037368827616 0.11799686079506194 -0.0846248436851966 -0.08181170118965007 0.11799686079506194
0.7924702884818001 1.0675268735951904 -0.09277828249371006 0.06342518039093258 0.12307402068541017 -0.09277828249371006
0.2546267291567642 0.8069777743129222 -0.1277781355826101 0.06681212677899577 -0.08358627614672931 -0.1277781355826101
0.9562659831755881 0.09031199550131658 0.12231899892448128 0.0842334293519896 -0.07563444757181677 0.12231899892448128
0.7113955237879361 -0.1309852169710426 0.02006008985633046 0.05256020751393199 -0.15688465558755618 0.02006008985633046
-0.003752717401033112 0.6294398918297213 0.16544815540258195 -0.01948387896489148 0.005006407109127708 0.16544815540258195
0.8336471486977666 0.5251286220493628 -0.02044508443597171 -0.16494076998410329 -0.012422507687053322 -0.02044508443597171
0.2050563121492054 -0.08068994054971301 -0.06989906736750845 -0.06851702092840066 -0.13489742770723018 -0.06989906736750845
0.6043746355449727 0.8329926727593607 0.07047627155244227 -0.04517323331890515 -0.14411888119660085 0.07047627155244227
0.5227471123908715 0.10692400945257058 -0.1283948394033248 -0.006139311186453653 0.10608888655522825 -0.1283948394033248
0.9135661541445663 0.3286652572095424 -0.15823240282793083 -0.04836175134858157 0.020035605295951792 -0.15823240282793083
1.1255481148824815 0.30752548416443437 0.06253545410647018 0.1476582181619964 -0.04543286659126418 0.06253545410647018
0.06386641233980483 0.2800966257335612 0.16626502390344114 0.010325454079762535 0.005206208045462536 0.16626502390344114
-0.10965172039568183 0.528369911496271 -0.12493662666169304 -0.11019221047046165 0.005127752705424185 -0.12493662666169304
0.2385576072420657 0.18890615456929788 -0.13787687378947924 0.06024278014471176 0.07168370032478588 -0.13787687378947924
0.7733517884721042 -0.08587699233994239 -0.0794548947401714 0.06194555742240202 -0.1327683900453491 -0.0794548947401714
1.0183603352973511 0.38747468292090603 0.16386457169128948 0.02974053253666556 -0.0064560550372159305 0.16386457169128948
0.9538213565610179 0.7661146709607718 0.16461191347178084 0.022506153294076025 0.013197302180380007 0.16461191347178084
0.028072144311069247 0.9351509744908493 -0.08737312312214143 -0.1043418907454177 0.09621062815163511 -0.08737312312214143
0.04535645569999264 0.6021099636695423 -0.16315537150355264 0.03320377179888249 -0.007457349773426902 -0.16315537150355264
0.864353872385478 0.6664580006447892 0.13376421065608035 -0.09043232919743734 -0.041314737821506936 0.13376421065608035
1.0347934991275096 0.7067504295190398 0.14964974773517525 0.06843128299584628 0.026455439669727278 0.14964974773517525
1.0893380671963615 0.40760520470538675 -0.13586178166679364 0.09537183943698094 -0.014952133710912235 -0.13586178166679364
-0.10121941728667672 0.21658046149471344 -0.02569585969044616 -0.14895297698695253 -0.07021759907082459 -0.02569585969044616
0.42866265721632707 0.1502794334639912 0.08547827014481443 0.028596666904483432 0.14019084760704575 0.08547827014481443
-0.037405333958107634 0.6692982317684666 0.1541199113133149 -0.0605099660274696 0.019062390351375188 0.1541199113133149
0.6302937984591882 1.0980216656378659 -0.12337892251202034 0.023853481038799113 0.10948255888442827 -0.12337892251202034
0.6209037612831838 1.0852851162199784 -0.13506941888073598 0.019753165205701917 0.09562344025056983 -0.13506941888073598
0.33094851501865924 1.1057379520234851 -0.1056708397319548 -0.034645852660240214 0.12414151723563806 -0.1056708397319548
0.6189557821297765 0.8222863146964443 0.05742550587259984 -0.054177153878926326 -0.14678189619511295 0.05742550587259984
0.6268561549102876 0.06935323100599339 0.15865333797594425 -0.014427229814595674 0.04897704734613371 0.15865333797594425
0.20216387951630282 0.3085471284504884 -0.08049937063366927 0.12276159997809853 0.0789127282266824 -0.08049937063366927
0.9931444238067504 0.8455934839973012 0.1316665773926825 0.08368158381564908 0.05864369280305442 0.1316665773926825
0.14789552657882443 0.6281375847820112 0.10989352962365746 0.11774954029924654 -0.04285132067915998 0.10989352962365746
-0.02631451215060232 0.5181959689183074 -0.16452561014868433 -0.02661305768924022 0.0009200779369655173 -0.16452561014868433
0.2519842677690528 0.763455204875688 0.0932021338696295 0.09470903671379559 -0.10060486262934987 0.0932021338696295
0.022991534236233346 0.3676985540229526 -0.1665921264740661 0.004802783335295096 0.0013320836538123213 -0.1665921264740661
1.0044554696483121 0.9308766654316669 0.0327217734925315 0.12426402217440266 0.10613913562075396 0.0327217734925315
0.6496399196413141 -0.010943996331770345 -0.1634859190720625 0.009108076962628104 -0.031099436923900176 -0.1634859190720625
0.7618403888029476 0.23026736375032802 -0.11127447995992956 -0.0864254236502251 0.08903041072748187 -0.11127447995992956
0.5733181643634496 0.826134386809676 -0.017683680333268878 -0.036349558329102916 -0.16169036717420018 -0.017683680333268878
1.1233682972111452 0.4889260129032308 -0.11195429166963455 0.12344717520087134 -0.00219300922331636 -0.11195429166963455
0.3956228683472014 0.17730585101132584 0.0436652816152785 0.04950109259081808 0.15303843566748665 0.0436652816152785
0.7384952970654742 0.7510632061700822 0.0644144977536662 -0.10586824014152087 -0.11144714436116329 0.0644144977536662
0.7342600356705823 0.17089537287924156 -0.13621685822899166 -0.05569096057233442 0.07823849578392503 -0.13621685822899166
-0.10372964370519644 0.6253134464806102 0.11909119504202899 -0.11416451080420169 0.02369661397914265 0.11909119504202899
0.30326519733907176 -0.01650984260390842 -0.15811249745174055 -0.018761511571616415 -0.04925669102669422 -0.15811249745174055
0.20841301690115316 0.8287712611040311 -0.15527746331997488 0.040178963754998395 -0.045302737602336475 -0.15527746331997488
-0.003020582384503201 0.2595152171638074 -0.1564151839709877 -0.051921964354996956 -0.024822925263116736 -0.1564151839709877
1.0147179014165046 0.8526944498127931 0.11140617719825466 0.10225820525023499 0.07006925801554965 0.11140617719825466
0.18820613511628598 0.83425051914776 -0.16105036137485437 0.029263943534615738 -0.03137165101822683 -0.16105036137485437
0.11604357258064935 0.5222574931237274 -0.12025327464877558 0.1152055885236507 -0.0066783296521809804 -0.12025327464877558
0.3171739171068648 1.1109231593020454 -0.09390627999093495 -0.039476496404342476 0.13191282950372887 -0.09390627999093495
0.3515273970377468 0.1338226811983082 -0.1295401543612196 0.03940422829720676 0.09718247258714292 -0.1295401543612196
0.06183812947305245 0.5664338071475173 0.15667827225423733 0.05618825135874966 -0.008519224756444961 0.15667827225423733
0.4756664361521831 -0.09098506910377846 -0.13931303842676712 -0.0037637014261234147 -0.09140836752537963 -0.13931303842676712
0.32703285046253167 0.19905030546597813 0.06636073874081533 0.07618296890086217 0.13255257591235747 0.06636073874081533
0.35231154633705913 0.1902354190628232 -0.05641168214895107 0.06749388922343301 0.1415629711909101 -0.05641168214895107
0.6601908745037187 -0.14005821697752974 0.04734802304778494 0.03879730934971137 -0.15501842238413796 0.04734802304778494
-0.16473540041441914 0.5502662960007196 -0.0033387127428845392 -0.16615883823962754 0.012564682640463799 -0.0033387127428845392
0.260243006566762 0.26826910235655343 0.005978260694086425 0.11976281764457027 0.11575364221779255 0.005978260694086425
0.45466344409744686 1.0239180824661283 0.16464571279951257 -0.002230808091839696 0.025779653406816407 0.16464571279951257
0.3018268007954322 -0.1246275674870202 0.06046767903621762 -0.04696769027222792 -0.14803875722337986 0.06046767903621762
0.1458351404513364 0.17212429183211536 0.16575942573643918 0.0127437355627905 0.011797786284271573 0.16575942573643918
0.1067713103038554 0.46929328294375905 -0.12896458522845144 0.10525378575547026 0.008219131266309318 -0.12896458522845144
0.8426742727101277 0.5605158678374754 0.06831334513917699 -0.14970669831892042 -0.026438024361158396 0.06831334513917699
0.27283522423872575 -0.09583044783490091 0.09394619122611106 -0.04904266861725663 -0.12863400633884767 0.09394619122611106
0.8086626807015794 0.6563669136188043 -0.06375743013393306 -0.13736812736507586 -0.06958998106557238 -0.06375743013393306
0.1821066686473396 0.7876097327602148 -0.15064106437903296 0.052879225357499136 -0.047841770725179526 -0.15064106437903296
0.33373588585697156 0.981455164159556 -0.16640389410218903 -0.0030537664504768757 0.008842868079485313 -0.16640389410218903
0.972449865833746 0.068289358763238 -0.0904516808286292 0.10334072737656054 -0.09442968430709146 -0.0904516808286292
1.0086101942206696 0.6163298156299906 0.1652421550880433 0.021196778609812773 0.004848147708497185 0.1652421550880433
0.6021640534573639 0.8298973587205364 -0.0621495031187144 -0.045747788462298225 -0.14772392118639247 -0.0621495031187144
0.846945794608955 0.6668323406933525 -0.12060940209441423 -0.1036644512158091 -0.04984808379798384 -0.12060940209441423
0.6647739266497699 0.8605296592262006 0.1305549245770954 -0.04306460381740772 -0.09422647899872104 0.1305549245770954
0.442507056445487 0.1474212899785216 0.08600039806442322 0.022976309103299328 0.14090350787162176 0.08600039806442322
0.7829549862670916 0.7120008254315556 -0.07958913123958872 -0.11719118966799068 -0.08780417433417578 -0.07958913123958872
0.12740984887055773 0.3392002816997428 -0.13749766230815968 0.08648203969695209 0.037323282913268266 -0.13749766230815968
0.7430665928857345 0.8096594093747292 -0.12833610404538312 -0.065657849667094 -0.08364609347317814 -0.12833610404538312
0.723471679233122 0.7811571230923855 -0.0891018094763857 -0.08763998548832015 -0.11026276918987057 -0.0891018094763857
0.8076105648906284 0.9748918246649925 0.15312144292987437 0.035780887807926494 0.055238841049822705 0.15312144292987437
0.5105807284831976 0.15656272432412338 0.05759242952609929 -0.004816130620660654 0.15632560482820398 0.05759242952609929
0.4087470539230297 -0.15778093192764675 0.02924689915993137 -0.02254670348971361 -0.16252397616675984 0.02924689915993137
0.2258772037256641 0.21665597130282188 -0.12881431686070233 0.07353479862929584 0.07600843992634808 -0.12881431686070233
0.9139002511935024 0.0003469997058418439 -0.07503719880400947 0.09493607707182863 -0.11460513881862866 -0.07503719880400947
0.7061039592913494 0.998618687757741 0.16190941103752793 0.015102952837958592 0.03653794207167392 0.16190941103752793
0.15528136956944116 0.3794190131852819 -0.09801334314262779 0.12724065048077987 0.044508192605533625 -0.09801334314262779
-0.02452232411437505 0.733834210457107 -0.14919673562570304 -0.06784729135184325 0.030246601670765334 -0.14919673562570304
0.14650088407327472 0.00972163812316107 -0.12989360159166685 -0.06107512839702555 -0.08470689897883132 -0.12989360159166685
0.8325338189956673 0.6557998484612044 0.10073679606234943 -0.12023508426526695 -0.0563329407060784 0.10073679606234943
1.0395827688914223 0.2916083508233118 0.14706168578715498 0.07315943756966725 -0.02825482340606351 0.14706168578715498
0.7098534700368171 -0.1252776030565267 0.0481717885662515 0.05076589590400048 -0.151261628898972 0.0481717885662515
0.6457241114060783 0.06770662259205601 -0.16080678841385526 -0.013993104392117664 0.0415108131367076 -0.16080678841385526
0.9482967611878268 0.8244430397559386 -0.15788597850151245 0.04324603219898315 0.031298183165197245 -0.15788597850151245
0.09483993445925126 0.659968094151 -0.15372049466550025 0.059903239305548125 -0.02365141049227134 -0.15372049466550025
0.6250966950165773 -0.1260792012909362 0.09277976965526602 0.02712834785864397 -0.13577092790046755 0.09277976965526602
0.640487819025631 0.8664621588831871 0.1273369716002785 -0.038492025424352865 -0.10040636145274172 0.1273369716002785
0.27280898153508604 1.0191301042012986 -0.15275224865286283 -0.0267285776208988 0.061074638334052626 -0.15275224865286283
0.6903875809997968 0.17913162707001384 -0.10804758809058414 -0.06475494482391093 0.1091342916155939 -0.10804758809058414
0.6631827119186893 0.04891987276642201 0.16542447078587505 -0.0069093588534657035 0.019099293265065577 0.16542447078587505
0.1558314077758593 0.5221180530730468 0.06095178239831252 0.15480209197841338 -0.009948382750647336 0.06095178239831252
0.8482884681874179 0.21993499391481847 0.15798968352823414 -0.04136199952430778 0.0332599259135879 0.15798968352823414
0.8588011164221269 0.8234844193507982 0.16580707422810542 -0.012555862586716064 -0.011319992420351845 0.16580707422810542
0.9314320457642506 0.9448187187097643 -0.11599842286288461 0.0833205880682285 0.08590589778976623 -0.11599842286288461
0.8319939870625337 0.5315296928311118 -0.007174477757567442 -0.16576629508646226 -0.015742936828681574 -0.007174477757567442
-0.06321722053443302 0.8237323899242461 0.07341181654792867 -0.1297249903046551 0.07456480308676598 0.07341181654792867
0.23195025860642748 -0.10916645444690154 0.019404619829719687 -0.0666700479556464 -0.1515135083503568 0.019404619829719687
0.04236939565756953 0.7479700363821733 0.1654017476023001 -0.018019542515503563 0.009764003042541372 0.1654017476023001
-0.018260578233038505 0.349895104791761 -0.16190351006412973 -0.03799877075351738 -0.011005663447228049 -0.16190351006412973
0.1711998393970573 0.5750370030598838 -0.035936590931049645 0.1586668469226304 -0.03621009386431843 -0.035936590931049645
0.6643242055059456 1.1362575989631898 0.05555560190038071 0.039293390264613766 0.15214263819448165 0.05555560190038071
0.28550475790127383 0.7555919707466192 0.010583332826584812 0.10692328383518616 -0.12740950599527387 0.010583332826584812
0.3624937547245305 1.1522165683002297 -0.006123459021359375 -0.03435915087753578 0.16297156125645432 -0.006123459021359375
0.614961178861628 0.1688103966290352 0.07382316673565553 -0.04899984880834339 0.14116278775816546 0.07382316673565553
-0.078823559177021 0.2937150718037198 -0.12112500327083521 -0.10783988238836856 -0.038432683055971674 -0.12112500327083521
0.34722597736727545 -0.14849226054980114 -0.011851123454043055 -0.03812095067194335 -0.1618150851142194 -0.011851123454043055
0.707688075246186 0.767936925761834 -0.04310980805609625 -0.09863181125895931 -0.12724420629215832 -0.04310980805609625
0.38823639762824286 0.10025895996102757 -0.14340452021586889 0.022868280707688263 0.0817921945964809 -0.14340452021586889
-0.13880881499003717 0.3361115104744275 -0.04835826702011048 -0.15449355046990484 -0.03963582535778 -0.04835826702011048
1.1574435777276693 0.5828380764828327 0.03640618726379478 0.16136595289488867 0.02033215564114771 0.03640618726379478
0.6514672138867079 0.1568658801205513 -0.11032776961160908 -0.050447191513838904 0.11428316542112203 -0.11032776961160908
0.4307957454621155 -0.035659270931641895 0.1617679550089799 -0.0051394309410278845 -0.03978055755759139 0.1617679550089799
0.20623999079916533 0.920636239661333 -0.1661542472874065 -0.007477272919834903 0.010706739737915055 -0.1661542472874065
1.1266028208172958 0.4454487235390276 -0.10556402382155064 0.12848692525685573 -0.01118591482267002 -0.10556402382155064
0.8075603130370301 0.9110765610258351 -0.16612729199907167 0.008026187361992242 0.01072757881645005 -0.16612729199907167
0.8387281892764316 0.48052040331090856 -0.04415179047691774 -0.1604470619798052 0.009226997209746922 -0.04415179047691774
0.7433101545660841 0.26440460601561233 -0.04188142620717321 -0.11589207578233109 0.11221742595289427 -0.04188142620717321
0.7781552222553589 0.28614776976712136 -0.0743988782935012 -0.11823480584622226 0.09090167970369248 -0.0743988782935012
0.4441241628275168 -0.10184985554196291 -0.12988637815201654 -0.009654527100109757 -0.10399084889932564 -0.12988637815201654
0.12129012147494223 0.31003420337080434 -0.14816765460065523 0.06821498998444975 0.03421752547073098 -0.14816765460065523
0.2699167026732221 0.1265497829331128 -0.1549596585714813 0.032186776795468566 0.05224263960316704 -0.1549596585714813
0.09243182865691107 0.7629058300336358 -0.16599088005977414 0.012599583712120683 -0.008127484545707851 -0.16599088005977414
1.0878913146523197 0.48872835332056325 -0.1415411259748418 0.08798319041095055 -0.0016869026830722057 -0.1415411259748418
0.27391481558316866 -0.001107031433041361 0.15906892517261256 -0.020458951759497097 -0.045346291084388944 0.15906892517261256
0.22202121684731102 0.8045327707149992 -0.14174265375764167 0.059107700706648336 -0.06475397748935864 -0.14174265375764167
0.756333215472842 0.16160731620306407 0.14859470561958998 -0.04557701114297843 0.060167493672896054 0.14859470561958998
0.7033699280446628 0.11183062242504582 -0.15479254157203912 -0.028672167105106186 0.05472617001895147 -0.15479254157203912
0.1491927283707628 0.24517215312192386 0.1528656303799084 0.053727849459701806 0.03902813112059831 0.1528656303799084
0.8466137903036757 -0.06762256260392896 -0.02291525184152271 0.08603476425139378 -0.14089247088125204 -0.02291525184152271
-0.08460237868603315 0.2220249012999977 -0.07792959499910221 -0.13305016686581622 -0.0632645959287826 -0.07792959499910221
0.7432751532694022 1.0372437876628093 0.140432911529687 0.037024931240383245 0.08176508792704724 0.140432911529687
0.19666911697172457 0.09893212396760032 0.1666421791683458 -0.0017233275931633676 -0.002278605233327431 0.1666421791683458
0.6783994609128698 0.786531524211759 0.03716670634163534 -0.0858723358203217 -0.13792155617688742 0.03716670634163534
0.5937471217015999 0.8451738061503333 -0.08673060177169392 -0.03730252103549366 -0.1373466505543334 -0.08673060177169392
0.35990480474191644 -0.149770791596068 0.02551528621564618 -0.03471323777461721 -0.16100229523306284 0.02551528621564618
0.8075385046278221 0.3484099187062164 0.055567791161238986 -0.14093900211296045 0.06947082874589613 0.055567791161238986
1.1577740044623628 0.4159842953820896 0.03421031467789672 0.16180333573424463 -0.02066670493059706 0.03421031467789672
0.26256840077289095 0.7735032199607328 0.09372687975851808 0.09034533651835715 -0.10407098518749051 0.09372687975851808
0.7537591988457764 0.9754432520534253 -0.16205749649701923 0.01832823958558279 0.03433979092233742 -0.16205749649701923
0.20005070536172082 0.6751737744408544 -0.0669122784274423 0.13181270094870645 -0.07698010549507642 -0.0669122784274423
0.16940564745653786 0.7682858693849673 -0.14921767159466187 0.05764767540219853 -0.04678257990286739 -0.14921767159466187
-0.1489329915309464 0.5775769707360261 -0.06480039995430717 -0.15246792494790995 0.018226842996473806 -0.06480039995430717
0.2997780380874184 0.0022270818937824566 -0.16261359796176797 -0.013632980790585296 -0.03389302834610383 -0.16261359796176797
-0.0478307540701175 0.477784368461725 0.15952028568870066 -0.04824136384610982 -0.0019562836809484145 0.15952028568870066
0.5539800158719682 -0.02266742539722566 -0.16471248376200107 0.002614260550037909 -0.025312864565410664 -0.16471248376200107
0.22219686752744505 0.6930494721080229 0.040359323569327754 0.13279137431900037 -0.09227867405460051 0.040359323569327754
0.7854673948605204 0.30796334374967993 0.05879678373230774 -0.1293970563013554 0.08704664164146637 0.05879678373230774
0.34246871072092344 0.12779634615350244 0.1363597470418627 0.0373521997624039 0.088253103839845 0.1363597470418627
0.8043925942765556 0.2799598678895582 -0.11091201117515176 -0.10081995591588165 0.07288099919718766 -0.11091201117515176
0.9620989610631134 0.6631773562902118 -0.16637020487861226 -0.009369428395644076 -0.003308552246112552 -0.16637020487861226
0.656489338624352 0.20249442021350672 0.030524821055430994 -0.07627607673976126 0.14501025203240545 0.030524821055430994
0.8705504670448251 0.202203551189855 -0.16483886794479596 -0.019187216297719016 0.015419991024654838 -0.16483886794479596
0.5283550306009694 0.9835541467450137 -0.16593354952933073 -0.0009140870916720875 -0.015588436841574587 -0.16593354952933073
0.2700731923826502 0.2283138721126099 0.08377942161623743 0.09307586783874226 0.10998031240859196 0.08377942161623743
0.7869212717533867 0.2373745144691612 0.12429654814194746 -0.08190265145749084 0.07496733676746886 0.12429654814194746
0.8264562962823372 0.9600655303897041 0.1538379156673635 0.03710744615289604 0.05229446357798175 0.1538379156673635
0.8614720662281747 0.5380709990233911 0.09559141194392101 -0.13577760777094192 -0.014300383503445929 0.09559141194392101
0.15158336116235815 0.49911835316035746 -0.06928636640833752 0.1515817603904305 0.00038356830615644117 -0.06928636640833752
0.17541321034661128 0.3621614394218174 -0.07786694303908763 0.13563521578905163 0.05759865621160494 -0.07786694303908763
0.6107273902931247 0.8625173188868188 0.1146691838448394 -0.03533145873089082 -0.11567386946965834 0.1146691838448394
0.1656570125395878 0.963032514380961 0.1507280342016848 -0.04163763247017719 0.057664070665813756 0.1507280342016848
0.16165302866060344 0.457247927114635 0.050086176627433046 0.15770875476802398 0.0199274021925245 0.050086176627433046
-0.05933696337863659 0.5052071769886249 -0.15573703985236653 -0.059358628913661976 0.0005526022894830805 -0.15573703985236653
0.15172839280830924 0.6371678196018393 -0.10945250587564527 0.11694629304803847 -0.046059649126343985 -0.10945250587564527
0.24039076383482844 0.8372882575367646 -0.14915354774645728 0.045361802686606625 -0.058934742125883885 -0.14915354774645728
0.9839408921692253 0.6169264961006103 0.16665300473568598 -0.0020742750055377382 -0.00050117217261688 0.16665300473568598
0.2927913524203638 -0.13099731579381335 0.028863396275261886 -0.05121289277579104 -0.15595487086580623 0.028863396275261886
0.8315342995482973 0.541347856428422 0.015996092709724803 -0.1646219206781501 -0.020531099045996697 0.015996092709724803
0.7857450899685934 1.0785384368146245 -0.081719614843905 0.06432559475054661 0.1302378600389689 -0.081719614843905
0.26996438618700186 0.8576008031436596 0.14893851462188812 0.040467465493952956 -0.06290851195584836 0.14893851462188812
0.541310521011879 0.8315223321946194 0.015824098278860232 -0.02051561254471773 -0.16464047295046796 0.015824098278860232
-0.1524747604280341 0.5822160281690628 -0.054122319209732275 -0.1563975150782322 0.019707095638163936 -0.054122319209732275
0.2226934407971845 0.1150012777194993 0.16469990727400474 0.014920391804230188 0.020714734613802653 0.16469990727400474
0.2255452536849759 0.6901525640394321 -0.013626449797755649 0.13653940050948177 -0.09459962871067913 -0.013626449797755649
1.0020095559331157 0.5929210177463652 -0.16633325541268318 0.010360889795525706 0.001917781072451233 -0.16633325541268318
1.0311262909656573 0.5206659419038517 0.1636574194264333 0.03150435209787804 0.0012258235399899187 0.1636574194264333
0.16845879439742867 0.40232801597473616 0.06282805124725319 0.14807889399827365 0.04362401754192676 0.06282805124725319
0.9173692039319516 0.9887534385786878 -0.08608977252707903 0.09267471994817247 0.10852522806491292 -0.08608977252707903
0.003550412951063342 0.7780503013259497 -0.15170755254371204 -0.06021101433970264 0.03372284138619923 -0.15170755254371204
-0.0302632810474337 0.6700841817544702 0.1566627439562347 -0.054155553090191544 0.017370621847719536 0.1566627439562347
0.06590728417102298 0.3222517880230911 0.16377238154807156 0.02861916675947693 0.011718707857263786 0.16377238154807156
0.649601061284169 0.8462629943292866 -0.112683246991961 -0.04870453969325927 -0.11273034834681482 -0.112683246991961
0.11644237349483683 0.7836135103734254 0.16507555243915717 0.018473122893378758 -0.013659556920009022 0.16507555243915717
1.0772475438577818 0.7806116220492869 -0.08751804342725061 0.12756520257745918 0.062012006448876146 -0.08751804342725061
0.8596221258553433 0.6198103124061519 -0.11467366778023948 -0.11474473626133233 -0.03822791121579005 -0.11467366778023948
0.6177687078185402 -0.03518854530743609 -0.15960719525488434 0.01031412026034221 -0.04687152572620392 -0.15960719525488434
0.4289311100846423 1.1299862363074542 0.09912892949410787 -0.01501929690044532 0.1331377250659866 0.09912892949410787
1.1644919632585082 0.458027263303844 -0.016815134271059226 0.16548644752015018 -0.010452976819289712 -0.016815134271059226
0.18066009666590216 0.005339086183007824 0.14104984672871063 -0.04815425865689054 -0.07459145989180198 0.14104984672871063
1.059016855989298 0.4468747760088841 -0.15489079430595185 0.061259509419266396 -0.005821694148604898 -0.15489079430595185
0.8500950991564542 1.0654579043190553 0.023062481845400457 0.08689076321606787 0.14034206417406572 0.023062481845400457
0.5323822055092031 1.0856080744844874 -0.1424607301468288 0.004776019571430363 0.08637075767216303 -0.1424607301468288
0.7533661392562607 0.20533496711491023 0.1239807855769441 -0.07261962800054012 0.08445668839449459 0.1239807855769441
0.30935614534340683 0.1522009438314842 0.130731910993416 0.0496903956036831 0.0906521362712253 0.130731910993416
0.7936924851370197 0.21450118547340563 -0.14001429963684578 -0.06482666101364112 0.06301807436604044 -0.14001429963684578
0.06620516056545483 0.11087840455006581 -0.14467474193731333 -0.06159631191282921 -0.05525297441665039 -0.14467474193731333
0.42530645372567616 0.1716778807800941 0.033385592134728456 0.03622273869569657 0.1592202663512865 0.033385592134728456
0.7736195245838955 0.8054926305370695 -0.1403504989183581 -0.05997016889656555 -0.06695591141686548 -0.1403504989183581
0.026165495553391538 0.681444535643472 0.16650289646552469 -0.006898230625522871 0.002641526188708804 0.16650289646552469
0.939154730903955 0.9907416335334118 -0.051386846047432995 0.1057277380382775 0.11814743010486754 -0.051386846047432995
0.19810727256644867 0.35565486856547196 0.020719673430592195 0.149196683160352 0.07133598422014598 0.020719673430592195
0.9804315719608419 0.959622776307525 0.024327420841939493 0.11914052037383464 0.1139802209947359 0.024327420841939493
0.5770044456569673 0.8285782883631956 -0.03695035533296284 -0.03708266186076177 -0.15823187165633215 -0.03695035533296284
0.19944724881180342 0.28395487219382076 -0.10447728569562797 0.10544031354055124 0.07579323737591734 -0.10447728569562797
0.8285243845265775 0.5564540924010457 0.0014533660603759668 -0.16425282416567646 -0.028225436373450256 0.0014533660603759668
-0.10279980959823554 0.6607839215724266 -0.11150312977607547 -0.11968978418822608 0.03192468306645055 -0.11150312977607547
0.6304427770313475 1.1514056761785092 0.027764636375473606 0.03226773500873896 0.16113874773660525 0.027764636375473606
0.841138609844699 0.5468281908766679 0.05955683519860714 -0.15421615399908728 -0.02116929390965884 0.05955683519860714
0.19194720891185957 0.646418615272433 -0.050218684304197195 0.14353280423967366 -0.06822166541230634 -0.050218684304197195
0.956474207539546 0.20215280114766437 -0.16046213659288655 0.03773046561653096 -0.02461894518827667 -0.16046213659288655
0.673737650747193 0.8923732265725526 -0.15084229512362052 -0.0286985075587411 -0.06481338938458027 -0.15084229512362052
0.6283854083905034 -0.056891256024307224 0.15055139880416657 0.01606194719147632 -0.06967114143104587 0.15055139880416657
0.963541604699564 0.9527808032902083 -0.07667442723563425 0.1058609345854614 0.10340344537082825 -0.07667442723563425
0.049122151187184326 0.2925993362928881 -0.16662541647286766 0.003368581148889791 0.0015495238186364192 -0.16662541647286766
0.3263398795215829 0.9313276244068839 -0.16294476826129434 0.013081401706895097 -0.03249087877287558 -0.16294476826129434
0.10610849738399619 0.3522767327370424 0.146582083341244 0.07426763342351077 0.02785299349781629 0.146582083341244
1.0222420247264505 0.08990672221925311 -0.029623003348657383 0.12899517140377353 -0.10129413213456295 -0.029623003348657383
0.272556502908418 0.7437833779889353 -0.004987580895700543 0.11364536721512757 -0.12180982031480642 -0.004987580895700543
0.5295585105467692 0.028492191668335054 -0.16437110581101796 -0.001724745942099542 0.027512589912186056 -0.16437110581101796
0.49267649633841154 0.14509072382554444 -0.082148509608954 0.0029917310844342873 0.1449843084334432 -0.082148509608954
0.8030272238074729 0.8742414342258977 0.16564135653991155 -0.011615717071452465 -0.01434551840512031 0.16564135653991155
0.8105578693281665 0.302277809531882 0.10195805013023396 -0.11121476084237086 0.07080685533331307 0.10195805013023396
0.010646099892762328 0.4866510595673142 -0.16633785247633376 0.010460171722378281 0.0002853399333429103 -0.16633785247633376
0.13436252147892108 0.33966990631145066 -0.13276366691350902 0.09227377085250298 0.04046155877022506 -0.13276366691350902
0.4487278990532555 0.1592078536353171 -0.060308910985592414 0.02311560839264082 0.15364335873101623 -0.060308910985592414
0.23073151519232354 0.3011955708084123 0.021353532469893216 0.13297669434527387 0.09817842527683258 0.021353532469893216
0.6970299617572158 0.9247599053955144 -0.16361115829015768 -0.01336755739863503 -0.0288179643612268 -0.16361115829015768
0.08375819996364259 0.23716081678772838 -0.1664878731226476 0.0065257498949435055 0.004120736485582897 -0.1664878731226476
0.2422053515219884 0.7257660480073804 -0.0550240638104295 0.11835213305740473 -0.10364797528329206 -0.0550240638104295
0.6042190400488994 -0.15161982752971614 0.04700301752721257 0.02525343846541167 -0.15789476864921137 0.04700301752721257
0.01819680003265206 0.14225595533281937 0.1332613320137035 -0.08036471653426601 -0.059671664163808306 0.1332613320137035
0.2807939171392717 1.0576121209578782 0.13396547015186344 -0.03627566939754073 0.09227733413210576 0.13396547015186344
-0.023324265331508998 0.8963164496210927 0.057438404707997 -0.1247263848276634 0.09445600229842326 0.057438404707997
-0.0925011532921719 0.2571492278911176 0.08990397927266759 -0.12985473004045406 -0.05322406762770329 0.08990397927266759
0.8790615456827324 0.5150787748716844 -0.11499604793099807 -0.12054332648514585 -0.004795120220067921 -0.11499604793099807
0.23165333035079638 0.25610235859185826 0.09436920951101535 0.10166034023714583 0.09239808059105781 0.09436920951101535
0.4136638164839271 -0.1530228928632692 0.050895640990196174 -0.020801438839522533 -0.15733630111382577 0.050895640990196174
0.22835001446299602 0.09049213982951221 -0.16644550233617714 0.004744741325838724 0.007152619071801951 -0.16644550233617714
0.8291594452195312 0.1753753229104057 -0.16234827770705768 -0.026837693844744118 0.02646795595480758 -0.16234827770705768
0.8648003923780332 0.1982929561158165 0.16453010769916837 -0.0204988073346959 0.016953475635776018 0.16453010769916837
1.0349117494167939 0.26981175979321187 0.14490783173789934 0.07563207156494575 -0.032546702284461236 0.14490783173789934
0.8835502964130963 0.34412363589149014 -0.1427736898461835 -0.07965811829483956 0.03237337571537642 -0.1427736898461835
0.011524116364041825 0.05751106209340778 0.049667061759808395 -0.11790981561411204 -0.10680934479609568 0.049667061759808395
0.4299353173413376 0.1558515818180427 -0.07509177971636495 0.029683393318631384 0.14580088668419722 -0.07509177971636495
0.8218156864284382 0.5967114642358167 0.02987859783237078 -0.157029110085806 -0.04719010229920085 0.02987859783237078
0.2447321173794994 0.7157123282111041 0.01703094040573801 0.1266343782956394 -0.10701149041271628 0.01703094040573801
0.8484910646088011 0.8217460709581623 -0.16467427375653831 -0.018878075171114256 -0.01742927475164152 -0.16467427375653831
0.4127921803776545 0.05141119343710743 -0.16102068156569627 0.008208263323487223 0.04222253307309625 -0.16102068156569627
0.35650846754079496 -0.14132872803657837 0.055412975085695315 -0.03432022320676523 -0.1533926407914268 0.055412975085695315
0.8703400573303319 0.3801208217486302 -0.12455628207603876 -0.10535839170359843 0.034104540325346176 -0.12455628207603876
0.06045260647156053 0.3146765588768384 0.1650746205372712 0.02117620024998845 0.008928380324901406 0.1650746205372712
0.26495248173933106 0.7367538277268697 -0.009704632395654781 0.11722491279837151 -0.11807589807940135 -0.009704632395654781
0.8368832341933368 0.5849461846109476 0.06707862377752741 -0.14794139187492525 -0.03730389497090773 0.06707862377752741
-0.06319408160319306 0.4636945916167292 0.15373735757255724 -0.06422973760137957 -0.004140467611680932 0.15373735757255724
0.213899616436456 0.6727845524776532 -0.017239809524254163 0.14190224895379805 -0.08569899933604551 -0.017239809524254163
0.418912236693645 0.8878871235671415 0.13045427756496503 0.021225452229321533 -0.10153294746259281 0.13045427756496503
0.745829282621961 0.8227699364067218 0.13744064421470767 -0.0571216229063887 -0.07499978194744468 0.13744064421470767
0.22842459879760058 0.7941585543549903 -0.13359728853668318 0.06759460792334863 -0.07321551238031984 -0.13359728853668318
0.3124101633523052 0.8503882366514485 -0.131377616824915 0.048405372010205956 -0.09041360260346422 -0.131377616824915
0.6734556659831117 0.8370149408304679 -0.1146505046444207 -0.055357804447846014 -0.10755720826272631 -0.1146505046444207
0.2146948320414231 0.3276220007640954 0.0010252666725332539 0.14264853526539753 0.0861865534330304 0.0010252666725332539
0.19524029924463543 -0.07856107131567391 0.0639250044073217 -0.07173448903291518 -0.1361819909991341 0.0639250044073217
0.1637634186277731 0.4100266767940996 0.06851253276410799 0.14676975790275104 0.03927402191261612 0.06851253276410799
-0.08066818013020738 0.19436250064816019 0.05814972464425047 -0.13821618780744918 -0.07275075758747505 0.05814972464425047
-0.1539464917915241 0.37081240961181006 0.005219596661232435 -0.16342647100377308 -0.032285014538090816 0.005219596661232435
1.0496745041135407 0.7767519781047441 -0.12023939743761294 0.10308489704994053 0.051901532557533346 -0.12023939743761294
-0.07510747298793075 0.7021245233019117 0.12556782023740778 -0.10339272845533078 0.0363379141003725 0.12556782023740778
0.08695356125096632 0.16774863520520644 -0.16392743459735942 -0.023448171211627716 -0.018861527799635392 -0.16392743459735942
0.017433973508194478 0.3896635370811007 0.16659222785337396 0.0048554021817142495 0.0011101649792334776 0.16659222785337396
0.02776692428952876 0.18834584762617207 -0.15312680410655033 -0.05492037817175362 -0.03624516110273896 -0.15312680410655033
0.16104196548880456 0.15217334796574095 -0.16604952873876688 0.010000741700810325 0.010262404632681351 -0.16604952873876688
0.9067503968757784 0.42270982854040406 -0.1427819695642136 -0.0844601466874299 0.016049005161678336 -0.1427819695642136
0.3224541589861788 0.81645661629999 0.09471205843328301 0.06710207295110379 -0.11960232259773595 0.09471205843328301
0.5795377905174272 0.17498309408101492 -0.02057020707716706 -0.03931454480590572 0.16065183137855815 -0.02057020707716706
1.0795820944947474 0.23009339966841508 -0.09143361637491883 0.12632133197183562 -0.05882680225240236 -0.09143361637491883
0.08205148887938818 0.0061158516890859604 0.07855095368574859 -0.09495643145459838 -0.11220874109553726 0.07855095368574859
-0.02199509462261362 0.335517924247154 -0.1598150132816608 -0.04510981187832016 -0.014214224560732208 -0.1598150132816608
0.6854723380708949 1.1051206375504532 0.1005662437690661 0.0389481198945669 0.1270718393218458 0.1005662437690661
0.8482453228423206 0.2907666498074576 -0.1378115506134763 -0.08034568947310727 0.04827343449950555 -0.1378115506134763
-0.01646982068701386 0.4361030056268891 -0.1654125577164631 -0.02025302694816219 -0.0025056789324567836 -0.1654125577164631
-0.08897333914584538 0.3092085160724505 -0.11658378926595775 -0.11330818396772398 -0.036704949313477474 -0.11658378926595775
0.5010619740924318 0.8974847511716126 -0.13141039685211736 -0.00027388885456924503 -0.10251346429538974 -0.13141039685211736
0.48832423099516437 1.072464230590711 -0.15003147815374177 -0.0014800740731508698 0.07256819359415713 -0.15003147815374177
1.0265799605898187 0.22773446145038334 -0.138439324160673 0.0824355533490273 -0.042622891123826265 -0.138439324160673
0.9819646315329271 0.2677996531813412 -0.1629538620514145 0.03151615932932508 -0.015183817749003093 -0.1629538620514145
0.591896660949893 1.1601814618801352 -0.006321439601417492 0.02296176471733714 0.16495628069342816 -0.006321439601417492
1.0653564684464967 0.838742039596029 0.04974243581577488 0.13645216297818724 0.08175741602732753 0.04974243581577488
1.121685904664216 0.40426436766041257 -0.10551375562931228 0.1275110094772356 -0.01963587565839327 -0.10551375562931228
1.0431100251658052 0.8618767785422876 0.06695126849202367 0.12701538336374052 0.0846309506861926 0.06695126849202367
0.8525018897505839 0.4733924271613632 0.07947888632589115 -0.14607978233959734 0.011026404572194509 0.07947888632589115
0.6087782008774558 -0.03019687814067129 0.16148370716756663 0.008288517041913086 -0.040399140862687664 0.16148370716756663
-0.05328904908296017 0.8716252983541531 -0.007249751306948849 -0.1382240466812048 0.09284035654195477 -0.007249751306948849
0.865745308663116 -0.01764804135716269 0.09934638347640637 0.07722119944961321 -0.10929300171328281 0.09934638347640637
0.10844715034982133 0.9928701397924757 0.10495169943125077 -0.08053580492549167 0.10137505950318021 0.10495169943125077
0.6582106578779248 -0.14015820147792224 -0.048615105501285144 0.038248456873736514 -0.15476241417622888 -0.048615105501285144
0.8991784281943473 0.618280770556556 0.14414482204680334 -0.08021876983320103 -0.02376966599094491 0.14414482204680334
0.40354722632925477 0.9615023513128742 0.1642072913181407 0.005835805983128721 -0.027922869198281245 0.1642072913181407
0.769349920060352 0.7012310346473625 0.03088052805034718 -0.13120717148607391 -0.09802473624414142 0.03088052805034718
0.030719555667958753 0.9103020675362038 -0.11207689115129767 -0.09286559010188573 0.08119439896117522 -0.11207689115129767
-0.01087565382202016 0.9008396419720951 0.07395837606685593 -0.11750610524403231 0.09219680915145431 0.07395837606685593
0.9257093830604306 0.5907021081002963 -0.1535809804229435 -0.06331418335057942 -0.01348978935174431 -0.1535809804229435
0.019879844764055243 0.18725847375171945 -0.14983187188939517 -0.06116307328513432 -0.03984051217310005 -0.14983187188939517
0.3881427511093974 -0.10706194293951943 -0.1184181836072982 -0.02125249338817128 -0.11533968568412056 -0.1184181836072982
0.634024401751785 -0.01795691452723569 -0.16294683664471957 0.008771650421314867 -0.033899326750587544 -0.16294683664471957
0.31219980586736606 1.0735483825282652 0.13062563434386826 -0.03221073340686243 0.09837271005432265 0.13062563434386826
0.4625929670153685 1.1595443340629883 -0.04454259796999878 -0.009094294088605081 0.1603465888595414 -0.04454259796999878
1.0664482734878722 0.19998703284528713 0.08887566312524943 0.12459579894557822 -0.06599076577020459 0.08887566312524943
1.0642501088631429 0.6519835902175874 0.1437396374415951 0.08145728977929739 0.021940928598127712 0.1437396374415951
0.41916674631118883 0.823495263504648 0.006002259294261584 0.04037731228797746 -0.1615902946143158 0.006002259294261584
0.1096606762241557 0.2739669860342689 0.1593195465715555 0.04235118326710998 0.02452421525528171 0.1593195465715555
0.47736492519095186 0.8816633825296811 -0.1180359656267462 0.006966105141944733 -0.11745961848861391 -0.1180359656267462
0.03168078520239476 0.5133718056592244 0.16366478704804333 0.03147709472832405 -0.0008987578987252272 0.16366478704804333
0.9301196313973532 0.044424892478921896 -0.10846919784355813 0.08686934624489537 -0.09201047538154172 -0.10846919784355813
-0.06516800458098038 0.2566084042078436 -0.12030126871766639 -0.10594239316403053 -0.04562446551331402 -0.12030126871766639
0.021145888491253373 0.5193175297543393 -0.16536913130993217 0.020739532131741505 -0.0008366567591613415 -0.16536913130993217
1.047456228876197 0.6620884189173092 -0.15081193148879327 0.06802835907934293 0.020141535675545774 -0.15081193148879327
0.09313719855364583 0.7236720158632106 -0.16279641920929 0.03129176700341816 -0.017202586672203514 -0.16279641920929
1.076187154443205 0.520519980985499 0.14804561111311382 0.07650393162924694 0.002724564770738577 0.14804561111311382
0.16622400979496293 0.5220986581641782 0.019742347065997725 0.1651317229783502 -0.010933049725711727 0.019742347065997725
0.1439187745838822 0.4931849189360487 -0.08416608654157096 0.14382722326278596 0.00275272638874305 -0.08416608654157096
1.0626841967150993 0.8156686618780489 -0.08185276720227463 0.1266181495139207 0.07103341814088934 -0.08185276720227463
0.4242116215483016 1.0779028625709404 -0.1446148183943652 -0.010773182441073073 0.08214785827174008 -0.1446148183943652
0.7319935391089811 0.2139092717114114 -0.102183533644877 -0.08293044092100302 0.10226849562926055 -0.102183533644877
0.016877446156043086 0.049311697001559684 -0.04418814900022431 -0.11750958877920172 -0.1096206267572607 -0.04418814900022431
