0.40855497 0.08591965 -0.009817356 
0.2909849 -0.012186412 -0.03754801 
0.30704385 0.08469474 -0.101771764 
0.27754414 0.17837745 0.02888241 
0.16947958 -0.20128544 -0.109169945 
0.32103878 0.13979098 -0.07624325 
0.29479367 0.19267547 0.071937226 
0.4899132 0.13082603 -0.033060808 
0.38969862 0.10129328 0.002439718 
-0.1145485 -0.1978366 -0.15941948 
-0.1715069 -0.019833464 0.009556384 
0.2776441 0.02508424 -0.06498344 
-0.09102714 0.021909956 -0.11902356 
0.10802362 -0.14886014 -0.1021289 
-0.09217949 -0.10688574 0.10634952 
0.12409381 -0.03294382 0.090877645 
0.15629004 -0.21651553 -0.09082619 
0.45642176 0.1208431 0.04409275 
0.023231616 -0.056253888 -0.037976462 
-0.10803512 -0.09607459 -0.066457495 
0.007458236 0.09921169 0.10087847 
-0.05079005 -0.04297498 -0.09656525 
0.268282 0.13920955 0.04974611 
-0.08797376 0.07025686 0.10703239 
0.38657844 0.0018873684 0.03956338 
-0.10942812 -0.18160152 0.09562933 
0.35656014 0.09767407 0.064814046 
-0.10618921 0.093633145 -0.09329695 
-0.20737684 0.093759365 0.021901526 
-0.42715773 0.055636507 0.01240743 
-0.14733495 -0.114132755 0.07479936 
0.31818184 0.063072614 -0.0916287 
0.27583727 0.17583525 0.017809438 
0.3249816 0.14253652 0.06127833 
0.10664465 -0.13790886 -0.07487559 
-0.091092244 -0.054389354 -0.12605669 
0.46394816 0.0026253022 -0.0017730942 
-0.13173684 -0.05671613 0.119777225 
-0.36499265 0.011107072 0.013009641 
-0.08568655 -0.21556245 0.1087702 
0.19513504 0.012495779 0.10857917 
0.34133503 0.003602196 -0.048227962 
-0.116903916 0.16018356 -0.030196799 
0.08868984 0.00038235183 0.09408826 
0.317562 0.15751584 0.053273004 
-0.07158629 -0.06073939 -0.028841032 
0.22152877 0.08007301 -0.08789138 
-0.12844178 -0.15009303 -0.14433174 
0.04779246 0.1159189 -0.09552168 
-0.083933234 -0.050935473 -0.124468856 
-0.1721656 -0.0027000143 0.03550718 
-0.023439117 0.15682685 -0.06915132 
-0.35007405 0.03421095 -0.019307943 
-0.025141098 0.05801128 0.10872894 
-0.39471754 0.015649911 0.01091096 
0.31861776 0.0838075 0.113456845 
-0.16178812 0.0070006093 0.0653287 
-0.33259645 0.04436425 0.019456519 
-0.30321512 0.06071975 0.016562512 
0.12066851 -0.1905636 -0.115768224 
0.4111725 0.085966915 -0.045087922 
-0.07454147 0.057960622 0.11066964 
0.1681871 -0.19731514 -0.08696219 
-0.018084252 -0.055295616 0.04023436 
-0.30279073 0.09080084 -0.003633324 
0.36994055 0.07299912 -0.058977585 
0.44984862 -0.06517537 0.015449668 
-0.15229158 -0.025653396 0.07440923 
0.16536039 -0.1068824 0.05515474 
0.15489806 0.03674018 0.10675539 
0.35625866 0.11729277 -0.048939746 
0.20056574 0.15752652 0.013943293 
-0.20506434 0.04249904 -0.03392501 
-0.13964058 0.16112371 -0.016489156 
-0.07446443 0.16312975 -0.051020596 
0.11352909 -0.024949025 -0.08708705 
0.07962997 0.15757006 -0.06071098 
-0.1583125 0.16045472 -0.005159452 
0.1702444 0.16167499 0.026027912 
0.46309543 0.0026831466 -0.00045225 
-0.00071388285 0.06326256 0.10666082 
0.46016124 0.124608435 -0.044752743 
0.11765644 -0.070554964 0.1062164 
0.21579097 -0.065718494 0.06490189 
0.34231892 0.13100828 0.01999715 
-0.40646112 0.031946097 -0.0145588005 
-0.3216278 -0.006077203 0.004133774 
0.031855565 0.16423829 -0.06217524 
0.4342972 -0.048064396 -0.019564448 
0.28426534 0.09754033 -0.08954808 
0.116745315 0.030115297 -0.09960114 
-0.07388454 0.16850266 0.045793995 
-0.15402491 -0.10355343 -0.08050417 
0.28407887 0.18089303 -0.079266526 
0.37161407 0.015004574 0.055885717 
-0.05126491 -0.06326862 0.024570722 
-0.2678344 0.049573425 -0.023537055 
0.10665943 -0.08107599 -0.089789756 
-0.21346569 0.07316564 0.030474475 
0.12746698 -0.035682462 0.095096454 
0.18733484 0.13174966 -0.059926745 
-0.26096195 0.08925241 0.007905286 
0.12392039 -0.14112654 0.112993024 
-0.14380251 0.017663015 -0.09026451 
0.15573792 -0.116017036 -0.052889317 
-0.074180596 0.09335604 -0.10088684 
0.16478364 0.17102255 0.008828808 
0.48465133 0.13553561 -0.034668833 
-0.10943323 -0.21651553 0.1453058 
0.34515804 0.0803483 0.08340225 
0.093475714 0.12885402 -0.08386942 
-0.11318928 -0.21159397 0.15543415 
-0.021975247 0.18407275 -0.042159446 
0.06366008 0.17382674 0.04592615 
-0.16662033 0.0033775556 -0.054350358 
0.242647 -0.03492687 -0.0707603 
-0.21900505 0.0369917 -0.029931294 
0.46247736 0.11230671 0.036605988 
-0.12044286 -0.21651553 -0.13972458 
0.06972084 0.1508253 -0.06890121 
0.27993926 0.008648425 0.058716554 
-0.13023654 0.1724065 -0.011283603 
0.13049948 -0.21144591 -0.063147835 
0.23350954 0.059424944 0.089884385 
-0.037112128 0.020753644 0.112446904 
0.4533187 0.0086787045 -0.007580632 
0.0059371446 0.10784475 0.09888636 
0.06735031 0.108591 -0.09721161 
0.35665148 0.06156975 0.07194118 
-0.31233388 0.014486922 0.019092701 
-0.046997763 0.036325082 0.113117486 
0.120467305 -0.1413869 -0.060609046 
0.19923744 -0.08450525 0.031702783 
0.33114374 -0.02770244 0.0083583025 
0.22170328 -0.06787796 -0.045355294 
-0.12731434 -0.05536059 0.04066066 
0.2827809 0.18806708 -0.064865775 
0.21843974 -0.075711794 0.023128359 
-0.14772119 -0.19736168 -0.13591646 
0.44685817 0.102560975 -0.038038548 
-0.096029736 -0.19419315 0.15453942 
0.13671742 -0.12335116 -0.0553564 
-0.030308899 -0.004891686 -0.10442199 
-0.21794732 0.12028555 0.0052476367 
0.3042298 0.08463961 -0.09986461 
0.085189946 -0.05171348 -0.053189743 
-0.2683918 0.046915606 -0.023786485 
0.107771076 -0.16582215 -0.072235726 
0.28620866 0.05219723 -0.06639994 
0.36326367 0.011622912 -0.05446497 
0.2642353 0.14039195 -0.030794762 
-0.031498775 0.19547942 -0.027378693 
-0.12230015 -0.21651553 -0.12497435 
-0.15003155 -0.037995085 0.045205086 
0.408185 -0.050651636 0.010893868 
0.10827752 -0.098711014 -0.07189285 
0.0019820258 0.11038988 0.098293036 
0.1620501 -0.20255251 0.056336015 
0.27044788 0.066650614 -0.07735445 
0.17855869 0.028996343 -0.108051956 
0.39516312 0.088666044 -0.049391627 
-0.34452057 0.06327365 -0.013134098 
0.23104331 -0.012585206 -0.09399402 
-0.010083402 -0.010774273 -0.08956025 
0.45038188 0.102927566 -0.03068049 
-0.1476051 -0.19313431 -0.101220205 
0.15500435 -0.09499384 -0.011649853 
0.32382762 0.08776098 -0.11604076 
0.11969269 0.058974136 0.100947686 
-0.0843159 -0.21716487 -0.15867448 
0.26096717 -0.031273987 -0.043442763 
-0.096998036 -0.090911716 -0.070046194 
0.16580503 0.046558466 0.10662465 
0.069888994 0.14121094 0.07830509 
-0.07170706 0.16398574 0.049619727 
-0.38449252 0.029553102 -0.01616892 
0.27342838 0.07123041 -0.07953107 
0.1304902 -0.21651553 0.08067663 
-0.16075242 -0.11342782 0.106196485 
0.23717742 -0.048364025 -0.060929168 
-0.121002845 0.18131305 -0.0026938987 
-0.110567465 -0.19714762 -0.15926056 
0.04682366 0.16626514 0.058181077 
-0.17850806 -0.0024059273 -0.027704362 
0.38537908 0.034073923 -0.052397136 
0.2631429 0.13534543 -0.04037132 
0.3388291 0.062302195 -0.112884015 
0.44100785 0.026210383 -0.008212387 
-0.3489568 -0.0006243692 0.005035618 
0.16523355 -0.21651553 -0.06981635 
0.28360862 0.21486278 -0.0033667441 
0.25038126 -0.04630655 -0.030465359 
-0.14905713 -0.1068056 -0.075877905 
-0.13346232 0.040439922 -0.094693296 
-0.16049743 -0.16084102 0.10913203 
-0.013311285 0.015462513 0.10400333 
0.2163732 -0.07005197 0.05211471 
0.14618033 -0.13149928 -0.114240795 
-0.14359123 -0.16155456 0.08633384 
0.28500962 0.1779134 0.08392851 
0.35352755 -0.0007806951 0.047776647 
-0.01735504 0.17371394 -0.05332756 
0.41074395 0.08352598 -0.012479817 
0.02454703 0.18450345 -0.039263066 
-0.16252147 0.15865365 0.002283279 
-0.060597934 0.061535172 0.10924472 
-0.18399897 0.105387114 -0.031845406 
0.032098144 -0.009292859 -0.0899707 
-0.2736022 0.0034859427 0.013177344 
-0.16253278 0.043058634 0.071346335 
-0.13539618 -0.08811093 -0.0631411 
-0.07237482 0.08842239 -0.10368168 
-0.11306856 -0.21651553 -0.13329068 
0.111100785 0.15141495 0.060473494 
0.15620023 -0.19621895 0.057647064 
0.12823248 -0.024499519 -0.093987964 
-0.08528051 -0.212001 -0.16416325 
0.28065547 -0.027730117 0.018864835 
-0.12483916 -0.076045044 -0.12990132 
-0.03876016 0.19849229 -0.02236931 
-0.11097537 -0.20443572 -0.16128723 
0.24141514 -0.048301768 0.05159678 
0.3382397 0.09291418 -0.086976625 
-0.0713471 0.19240034 -0.020722628 
0.4289822 0.11693807 -0.042831555 
0.42596883 0.089031786 -0.039826334 
0.11262974 -0.1552567 0.105096936 
0.3918183 -0.003076735 -0.035947792 
0.13332902 -0.033310127 0.099926025 
-0.034391254 0.102044396 -0.10074353 
-0.008664022 0.023299849 -0.10342461 
0.40323856 -0.05169305 -0.003565066 
0.21746294 0.07279509 -0.09133773 
0.20973508 -0.06754974 -0.07223872 
0.3850342 0.006975593 0.044621777 
0.22536306 0.0548246 -0.09362585 
0.09578144 0.18880995 -0.0121982945 
0.0664127 -0.060635928 0.034374975 
0.4206112 0.057149332 -0.04311976 
-0.12703039 -0.050658427 0.027866747 
0.33076963 0.14095528 -0.003583687 
-0.14352982 -0.059033282 -0.11092745 
-0.45127073 0.02620127 0.0029518795 
0.024844171 -0.05791257 0.035349097 
-0.10187706 0.12294816 0.07877786 
0.27819547 0.18076749 0.031040292 
0.0716362 -0.040928993 0.06873147 
0.34427145 -0.013840565 0.028377496 
0.21510641 -0.047843885 -0.091808684 
0.08946915 -0.015505587 -0.08845499 
-0.17046085 -0.023432916 -0.004718831 
0.11020075 -0.03009232 0.080352604 
0.25174323 -0.044356953 0.03295067 
-0.11550163 -0.16743748 -0.145543 
0.16608502 0.15064883 -0.044535235 
-0.1047233 0.16456373 0.03330339 
0.103452995 -0.06518703 -0.04167864 
0.06086037 0.1535596 0.06798398 
0.21975203 0.0789279 0.090394236 
-0.069152884 0.06396162 0.10913034 
-0.102814004 -0.1478404 0.13003145 
0.30221245 0.16800143 0.08663879 
0.38190567 0.05243166 0.055336706 
-0.1665643 -0.0100811655 0.041676663 
-0.19485568 0.003575878 0.01959326 
0.30732027 -0.009658487 0.029365199 
0.14676103 0.13450088 -0.067550875 
-0.0034318075 0.17198382 0.055197928 
0.39813024 -0.0047026463 0.03561528 
-0.0831168 -0.06973004 0.11994328 
-0.031440534 0.13713905 -0.081219524 
0.33046693 -0.020615205 -0.016080458 
-0.19881515 0.08038429 -0.037277866 
-0.13538837 -0.21106213 -0.11568927 
0.3446921 0.072721735 -0.0902147 
0.29640827 0.015049229 -0.048868433 
0.36683524 -0.030398633 0.016530704 
-0.12375756 0.11836933 0.06940539 
0.067340635 0.18103616 0.036476884 
-0.09019091 -0.09291197 -0.118580334 
0.12310158 -0.21082193 0.10562591 
0.2222378 -0.07457234 -0.010965461 
-0.15344553 -0.05487101 0.07218105 
-0.08226923 -0.20250084 0.14538385 
-0.13758701 -0.047125082 0.034854256 
0.060309775 -0.054693177 0.0438569 
0.46574065 -0.047472768 -0.0070474152 
-0.14859971 -0.13989457 -0.08230305 
0.022312399 0.14641762 0.07983569 
0.35423782 0.09894794 -0.065787256 
0.21528164 0.14419855 0.03367134 
0.22200291 0.009171227 -0.10075394 
0.13583748 -0.21651553 0.085034505 
0.34149608 0.08754754 0.08398828 
-0.16831066 0.068156086 0.062032957 
-0.13710943 -0.1444572 -0.13985935 
-0.20232162 0.013860657 -0.023366693 
0.11597642 0.17355733 0.030868178 
0.07873056 0.0077410336 0.09673782 
-0.069925845 0.12320919 0.08677061 
-0.024722096 0.0046190494 -0.10664247 
0.038943533 0.082449526 -0.10514471 
0.27613407 0.18603775 -0.0011747892 
0.1202807 0.1731153 -0.03013499 
0.009672261 0.04034772 -0.10469332 
0.25371903 -0.037624873 0.04316617 
-0.010569927 0.0052776313 -0.09996292 
0.2492579 0.010376497 -0.082383245 
0.12585957 -0.20525709 0.06275431 
-0.10619158 0.12979163 -0.068699546 
0.13032392 -0.1830873 0.12088724 
0.024862625 0.2003996 -0.0144916745 
0.16642727 -0.100028016 -0.0407335 
0.09807657 0.1849326 0.018189047 
0.007361847 -0.06460452 -0.019667003 
-0.09913351 -0.059424322 -0.12945074 
0.13141383 0.0031464072 -0.09782757 
0.41965064 0.10739818 0.02875699 
0.056055874 0.19600347 -0.014076975 
0.12187582 0.16341817 -0.0434332 
-0.4535099 0.044920333 -0.0097533995 
0.3208079 -0.0054996694 -0.03461863 
0.14910042 -0.18919538 0.056520298 
0.33210513 -0.018094921 -0.020052103 
-0.35241264 0.023641482 -0.018195154 
-0.15068175 -0.0832427 0.07322931 
-0.10631826 0.13867955 0.05914846 
0.1386459 -0.21651553 -0.08640385 
-0.10094816 -0.10804862 0.13047212 
0.047423154 0.11220177 0.09727086 
0.1261982 0.13797559 0.069111586 
-0.47518456 0.067612626 0.0020520734 
0.29786167 0.070510305 -0.08055522 
-0.11721685 -0.053725567 -0.025982741 
-0.103377275 0.18980172 -0.0019559646 
0.23994686 0.022236869 0.09147267 
-0.20912337 0.12432092 -0.0055123447 
0.35931915 -0.035988208 -0.0002573806 
0.2267375 0.09695555 0.08377728 
0.2916033 0.21353158 0.026436271 
0.15800776 -0.14954396 0.08348704 
0.15827248 -0.18180773 0.09856086 
0.23901716 -0.0608085 0.021078467 
0.2847869 0.20117755 0.056422837 
0.31164566 0.105825424 -0.11804984 
0.1130145 -0.122902215 0.069515474 
0.3421999 0.047660105 0.083995976 
-0.08106872 -0.07576828 0.07666837 
0.17404479 0.060936015 -0.1025479 
-0.1303293 -0.04698517 -0.0049490747 
0.09706385 0.056088675 0.10412016 
0.26520663 0.13788219 -0.042258494 
0.22095956 -0.07525639 -0.0060624843 
-0.22514668 0.029698731 -0.026315995 
-0.04195261 -0.00915306 -0.10270439 
0.27937782 0.18108019 0.041505285 
0.28946218 0.1384372 -0.10610376 
0.16260278 0.154119 -0.0415222 
0.30471548 -0.0012838579 0.03774045 
-0.23987997 0.015487473 -0.019780202 
0.14123926 0.1539971 0.04905012 
0.42254665 0.088685624 -0.042099737 
0.058240697 -0.0013073462 -0.093933575 
0.15249749 -0.21178064 0.12024796 
0.2412896 -0.037934072 0.07099989 
0.2799434 0.037978273 0.06399506 
0.21537215 0.12711881 -0.058358166 
-0.18551011 0.13634492 -0.006215018 
0.3479819 0.044188626 -0.06882259 
0.32971987 0.031262666 -0.05874389 
0.07557003 0.07574643 -0.10568341 
0.36330143 -0.016621657 0.035391998 
0.18854412 0.03140241 0.10671176 
0.10378789 -0.14326416 0.08999765 
0.22138026 -0.07122289 0.034276325 
0.4146866 0.0047779772 -0.03567148 
-0.15626584 0.12605204 -0.036172777 
-0.17747569 0.15014265 0.0013989243 
0.4332266 0.11021357 0.046413183 
0.09744006 0.18538883 -0.018171102 
0.43674132 0.11931838 -0.04009835 
0.15124914 0.0035277123 -0.104218066 
0.35141897 0.12386716 -0.01145204 
-0.080592155 -0.063438185 0.0022308687 
0.4462304 0.1010958 -0.02968962 
0.19827123 0.06938303 0.09696874 
0.23276822 0.10152187 0.07828799 
-0.10908429 0.0003654858 -0.11759585 
-0.16025105 -0.109818794 -0.10524947 
0.32144532 0.15348165 0.03621319 
-0.15531196 0.11458475 0.04775242 
-0.035562385 -0.007404273 -0.105251275 
0.12886837 -0.10464256 0.0447712 
-0.028974526 0.07293409 -0.10664808 
0.22792506 0.004680797 0.0978171 
0.30992725 0.10094446 0.11459743 
0.4358933 0.02707159 0.021990215 
-0.1890297 0.1316329 0.009615246 
0.17494668 -0.089219585 0.08844961 
0.252233 0.12384967 0.058901463 
0.10967121 -0.1788132 0.074203156 
0.1993332 -0.02088252 0.10826692 
-0.084237784 -0.19987194 0.12635604 
-0.13370937 -0.19376664 0.09422732 
0.027626622 0.15425117 0.071380295 
0.10702053 -0.10850894 0.09560658 
-0.16101107 -0.118616104 -0.11167252 
-0.0015595837 0.009283067 -0.098659396 
-0.10001333 -0.090364456 -0.06714059 
-0.1484709 -0.19611803 0.1349094 
-0.04551262 0.17199096 0.050337173 
-0.0040021525 0.04984142 -0.10684459 
-0.26831576 0.06503733 0.019416898 
0.28552982 0.07957058 0.085909635 
0.38924345 0.0320109 -0.049595498 
0.10851405 -0.17046426 0.07208008 
0.43652114 0.09486429 -0.03668805 
-0.3272139 -0.0037356007 -0.005436503 
0.13431509 -0.20653863 0.053402785 
-0.26070774 0.026077716 0.023836182 
0.297106 -0.01076601 -0.03695508 
0.0155312475 -0.0019012927 -0.08859145 
-0.1093957 0.08232818 0.09792345 
-0.06656722 0.1047853 -0.09785779 
-0.3152866 0.012723248 0.01799678 
0.25886288 0.08289043 -0.08577158 
0.24084699 -0.04517129 0.05972101 
-0.36272967 0.067121625 0.012657484 
0.19342424 0.05639193 -0.10082039 
-0.10053907 0.0489016 -0.10943443 
-0.48422962 0.05217074 0.0055843424 
0.37578294 0.11365699 0.010790235 
0.15401347 0.17421652 0.009654752 
-0.018227905 0.06142814 0.10779896 
0.20451753 -0.053232763 -0.09404422 
0.3243819 0.10687091 0.09723719 
0.24625444 -0.056177083 0.0058068885 
0.29599446 0.19816367 0.008098004 
0.3754207 0.078857034 0.056861535 
-0.15208647 0.15650052 -0.013248031 
-0.10267426 -0.080271944 -0.05826331 
-0.096027695 0.04485932 0.11195902 
0.14231639 -0.10046444 -0.113219246 
0.021416385 0.11963709 0.09576619 
0.118425734 0.17349738 -0.03031107 
0.3380277 -0.031041933 0.002672735 
-0.17258888 0.11938285 -0.028514685 
0.1770315 -0.21867725 0.11167863 
-0.16748987 0.14050333 0.016172944 
0.36256325 0.10053762 0.060507003 
-0.2105951 0.05086501 -0.03290986 
0.16431133 -0.11026655 -0.08488298 
-0.15381996 -0.15370329 0.09214738 
0.11487841 -0.16270758 0.10623457 
-0.20901515 0.07514903 -0.031246874 
-0.11489806 -0.07823366 0.13375056 
0.07497807 -0.024215449 0.083394505 
-0.0488795 0.036234125 0.113200285 
0.204157 0.033795517 -0.10429108 
-0.4745414 0.040567044 -0.0069339913 
0.18440557 0.019391654 0.108733006 
0.10703909 -0.076751396 0.01848234 
-0.10144086 -0.08320512 0.13175012 
0.42739674 0.030583538 -0.03040027 
0.18923599 0.066125154 -0.09913545 
0.27780363 0.115171224 -0.082071215 
0.041759998 0.18343787 -0.039107982 
0.19337352 0.054820526 -0.10121715 
0.28275806 0.09481612 0.08947524 
-0.112491585 0.09500895 -0.09122165 
-0.14165567 -0.18262523 -0.1454323 
0.28733635 0.15556754 0.102581464 
-0.14756632 -0.03982928 0.03870891 
0.46246076 -0.06398601 -0.0017248155 
0.2989411 0.1817946 -0.07708748 
0.16449726 0.121441334 0.074312955 
-0.21299121 0.0046077296 -0.013446919 
0.022254724 0.20413241 -0.002707539 
0.4284946 0.10008772 -0.045664605 
-0.1349739 -0.21202612 -0.12729461 
0.107088216 -0.098450206 0.097130045 
0.2578457 0.017896654 0.076349206 
0.41900045 0.048754044 -0.041519202 
-0.17087227 0.1250476 0.024796324 
0.39443862 0.06224056 0.052023925 
-0.089987375 0.15228243 -0.053688604 
-0.1471253 -0.034839027 -0.09408594 
-0.09722064 -0.099889 0.12847306 
0.10713667 0.18640897 0.0015487409 
0.0905211 0.10823341 -0.09512266 
-0.029079746 0.10645564 0.099683896 
0.31116676 0.057714306 -0.07575576 
0.08919742 -0.04035712 0.06899907 
0.24212845 0.091455854 -0.08667886 
-0.16583563 0.0038675312 0.056517642 
0.23705879 -0.064236455 0.0119965235 
-0.12337955 -0.13320985 -0.077304244 
0.28791392 0.20968774 -0.049111523 
0.07943296 0.19006123 -0.017044898 
-0.103574455 -0.13290055 -0.12954673 
-0.07226258 0.19204836 0.02095197 
0.42959738 0.019072607 -0.033256806 
0.016631644 0.07942155 0.10541564 
0.4192202 0.07301101 0.030754924 
-0.027317487 0.03808468 -0.10992073 
-0.09240369 -0.06435226 0.04245767 
0.42257833 0.0647347 -0.031569146 
0.26241794 0.030223629 -0.07394297 
-0.12680191 -0.14194547 0.14274244 
0.27241477 0.119860604 -0.075432815 
-0.15983334 -0.15076678 0.11965894 
0.33025768 -0.0020593728 0.03801971 
0.27228084 0.16046932 0.0146645885 
0.46586978 -0.018804159 0.020355247 
-0.106595024 -0.055788137 -0.020753926 
0.00870188 0.13676244 -0.08523514 
-0.15351044 -0.15997097 -0.13283636 
0.3531947 0.0045681107 0.050519194 
0.15120849 0.17307204 0.015640859 
-0.11479618 -0.055476956 0.031288084 
0.116484225 -0.08477636 -0.010032885 
0.15702136 -0.043158304 0.110101394 
-0.10544131 0.060971674 0.10494112 
-0.08710532 -0.21664882 -0.14427507 
0.23125724 -0.061253197 0.04311127 
-0.12227315 -0.09041291 -0.13385582 
0.20006146 -0.017995873 -0.10840637 
-0.03971838 0.18476167 -0.038748693 
0.39955506 -0.03646177 -0.019752072 
0.23069778 0.14157549 0.029535223 
-0.020431688 0.09798061 -0.10112784 
-0.05678793 0.049405213 -0.11101784 
-0.29429537 0.010936654 0.017703826 
-0.12997459 0.0810662 0.08595831 
0.21593525 -0.0675095 -0.05962683 
0.18306355 -0.08383608 0.08094378 
-0.018132197 0.053871702 -0.10804539 
0.20706683 0.052940544 -0.09931945 
-0.16136216 -0.12885097 -0.10724253 
-0.16968226 0.00017842687 0.04647963 
-0.07386365 -0.06256583 -0.021895692 
-0.15146542 0.1481573 0.022191368 
-0.1875642 0.007336466 -0.026655758 
0.016987931 0.15051955 0.07756891 
-0.014193602 0.0673332 -0.106843054 
0.10389396 -0.14714135 -0.082058035 
-0.15434892 0.08131286 0.06924692 
-0.08977971 -0.20511745 -0.10096607 
0.16867085 0.025983592 0.10753464 
0.17239481 -0.20175944 -0.08930414 
0.11634262 0.1570657 0.052782122 
0.15821157 -0.18220505 0.10239933 
-0.15141924 -0.11082496 0.12300228 
0.27732578 0.02773753 -0.065217026 
-0.09247495 0.016198467 -0.119986236 
0.18363917 -0.2119011 0.09337008 
-0.08206847 -0.020609941 -0.12309736 
0.1646563 -0.10972733 -0.06119959 
-0.075800456 -0.2160505 0.107799806 
0.2825753 0.21179004 -0.0032613573 
-0.109915614 0.075085975 -0.099616654 
-0.15294337 -0.04517271 -0.07016653 
-0.42018545 0.01569655 0.0018212638 
0.17357971 0.16631472 0.016330514 
0.163811 0.03031164 -0.10716386 
-0.07999403 0.12865083 -0.08254399 
0.2718362 0.026825158 0.067286275 
-0.3437094 0.005437467 0.011312416 
0.09624373 -0.07748033 -0.007329333 
0.378343 0.06382046 0.055849604 
0.1657689 -0.19322085 -0.09524819 
-0.022138081 0.085899554 -0.103959076 
0.19750991 0.10670015 -0.078177005 
8.2118866e-05 0.1901 -0.03394652 
-0.100818105 -0.14268516 -0.12385097 
-0.1399761 0.124725096 0.050901517 
0.3335019 -0.02696558 -0.009319344 
0.035536293 0.021993835 -0.10015915 
-0.1503821 -0.008439803 0.075225666 
0.13389507 -0.21601474 -0.07181853 
-0.21254754 0.012627936 -0.019911455 
0.032592025 -0.04790105 -0.051198997 
0.2767118 0.07877887 -0.083765954 
0.015537077 0.10636531 -0.09905615 
0.18327977 -0.004689742 0.110562794 
0.031451903 -0.05331647 0.04301415 
-0.056994 0.1753982 0.04436997 
0.19127823 0.0586968 0.10080721 
-0.47897762 0.058667596 0.00570054 
0.28188238 0.20892309 0.0010831034 
0.25089043 0.059881695 0.081075646 
0.1573837 0.11023673 -0.08408981 
0.4387287 -0.06472077 0.010786726 
-0.15676948 -0.026477812 0.05508501 
-0.080888785 0.019459683 -0.11773028 
-0.09406368 -0.19760403 0.1026885 
0.16701816 -0.10493484 -0.08328356 
-0.1360868 -0.044070337 0.0065826303 
-0.19485737 0.072474234 0.041304696 
-0.11459525 0.0065510455 -0.11440538 
0.20425594 -0.075631365 -0.061859477 
0.38927275 -0.043389056 0.006537408 
-0.011558195 0.17980056 0.046918157 
0.30359855 0.1821305 -0.04702156 
-0.12637967 -0.21132322 -0.14653726 
0.10946106 0.0034421347 0.09466591 
-0.08104953 -0.06134296 0.02162323 
-0.060203202 0.10429115 -0.09866755 
0.29711223 0.096386224 -0.10118845 
0.0003057985 0.17903025 0.047379605 
-0.041518275 0.18359771 0.03993982 
0.0212471 -0.013563232 -0.0854783 
0.3515627 0.11980378 0.053921454 
-0.10776617 0.007057945 -0.11699331 
0.20834944 0.046256404 -0.100604415 
-0.041324135 -0.025223246 0.097462736 
-0.13929838 -0.1373272 0.13845265 
0.28147605 0.041563746 -0.06462246 
-0.039381903 0.2001599 -0.01969202 
0.10881974 -0.18339905 0.09018007 
0.2037719 -0.00029892655 0.1079211 
0.14364351 -0.10871303 -0.11332163 
0.25398582 0.117804766 -0.06417646 
-0.032899417 0.10003537 -0.10114493 
-0.09727066 -0.041444495 -0.12732008 
0.12387777 0.11123297 -0.08821733 
0.07043285 0.17357709 -0.044912804 
-0.11674181 -0.058969554 0.1286282 
-0.12440245 -0.07268342 0.12945262 
0.2940426 0.20394851 -0.002935179 
0.15585934 -0.122213915 -0.09562673 
-0.019581236 -0.026624348 0.080837145 
0.3890728 0.10703057 0.047372248 
-0.32906172 0.018352216 -0.019680474 
0.14956854 0.15171634 0.04901933 
0.45576403 0.112703174 -0.042341355 
0.122833185 0.18188655 -0.013322232 
0.47348276 0.13278706 0.0386115 
0.39829886 0.026444757 0.043885034 
0.18188031 -0.090231515 -0.071651846 
0.42034954 0.06582569 -0.0008620813 
0.12579697 0.067029886 -0.10056377 
-0.10994895 -0.017028261 0.12084961 
0.27125245 0.076956056 -0.083092764 
0.34916174 0.054963436 0.0852609 
0.1420938 0.0011330772 0.1012634 
0.22414342 0.13314798 0.04957207 
-0.040456876 -0.043537345 0.08164803 
0.2109094 -0.054460388 0.09017005 
0.29765853 0.13117886 -0.11307469 
-0.14196295 0.035120267 0.08922802 
0.2559837 0.14242837 0.014078225 
0.29934278 0.16436009 -0.10064607 
0.18711433 -0.071873374 0.09211931 
-0.016831838 -0.01646103 0.088484876 
-0.030955823 0.20132765 0.019064289 
0.23271263 0.058183283 -0.09027027 
0.27895015 0.078015804 0.08178614 
0.089087956 0.09529738 0.09974151 
0.2863673 0.14139952 -0.10109914 
0.1711712 -0.10207847 0.054181356 
0.10743177 -0.080990694 -0.08267156 
0.18289806 -0.069163606 0.09780821 
0.124117926 0.121997826 0.08261259 
-0.17553078 0.054661766 0.056011084 
0.11889873 0.016968323 -0.097315006 
0.33038348 0.13799337 -0.060755294 
-0.09330604 -0.07192256 -0.059970837 
0.034845732 -0.061879687 0.027059479 
0.27576745 0.15525053 -0.054170262 
-0.31524575 0.055344235 0.017856812 
-0.06870835 -0.06490008 -0.06844842 
-0.29175687 0.024670785 -0.02269679 
0.4451671 0.0031131837 0.027817165 
0.2845189 0.15080498 -0.09588164 
0.1393273 0.11821991 0.08225986 
0.15824626 0.10892289 0.08467273 
0.090078376 0.074193075 -0.10550308 
-0.12888665 -0.14840299 0.14431572 
0.21420774 -0.028649902 0.10050763 
0.03341135 -0.067316845 0.014323241 
0.42188302 0.09522658 0.02324665 
-0.14103523 -0.027814222 0.09895846 
-0.37310183 0.008369505 -0.0097038755 
0.10534724 -0.14787713 -0.07616288 
0.3248494 0.030524224 0.057143733 
-0.17590462 0.035300758 -0.055676747 
-0.14971565 0.030483644 0.082783855 
-0.12571979 0.119980305 -0.06621826 
0.22933736 -0.069825865 -0.013845431 
0.015690917 -0.022343447 0.07600741 
0.32882655 0.03009764 -0.057950318 
-0.24449931 0.047107648 -0.026376668 
0.14727116 0.15785684 -0.0421689 
-0.17293584 0.1076659 -0.039418314 
0.28929928 0.1721076 0.09933451 
-0.40973422 0.03484712 0.014573521 
0.027761439 0.060260847 -0.10543041 
0.10683839 -0.119702116 -0.09704588 
-0.22129901 0.023620596 -0.025247468 
0.2968611 0.195749 -0.014713881 
0.11434519 -0.15336516 0.06275164 
0.3946243 -0.020195073 -0.026618686 
-0.08816631 -0.047926348 -0.12691784 
-0.17434438 0.054444145 -0.056930635 
-0.015952239 0.16026257 0.067919165 
0.10731801 -0.17466095 -0.0837852 
-0.14980185 -0.04761279 0.059584554 
-0.09918789 -0.11003857 -0.08028655 
-0.4082783 0.07264414 0.0066080433 
0.11196612 -0.13806891 0.06987539 
0.15843706 -0.08876934 -0.10006741 
0.34118646 -0.0057277055 0.037896603 
-0.11035024 -0.21560785 0.110849574 
0.43445873 -0.06285658 -0.007996576 
-0.10871017 -0.0772468 0.056559805 
-0.1544602 -0.03268522 0.057230446 
0.086765654 -0.014411816 0.08914742 
-0.41573253 0.057214763 0.01304926 
0.25455192 0.066309154 -0.07989409 
-0.12079399 -0.09886372 0.13635913 
0.097326525 0.18176346 0.024559401 
0.13108578 -0.18728054 -0.121751845 
0.15700172 -0.20543015 0.052251056 
0.2957897 0.08640414 0.09487878 
-0.10531148 -0.18976986 0.1558601 
0.42254806 -0.048268203 -0.016883705 
-0.22727056 0.11186071 0.0057264618 
0.23700173 0.1350997 -0.04453976 
0.3330493 0.02294028 -0.055758875 
0.45529124 -0.0040629674 -0.023052514 
0.3487393 0.12503299 0.034523886 
-0.34428853 -0.0027102581 0.0035905961 
-0.092552714 0.16156434 -0.042341355 
0.42055863 -0.05338439 0.013716898 
-0.111904554 -0.13539243 -0.13693129 
-0.15788467 -0.10217548 -0.10938581 
0.2880209 0.039756946 0.061888292 
-0.18764411 0.0023011053 -0.02158389 
0.031062279 0.108598135 0.09846883 
-0.10618055 -0.16540089 -0.1046197 
0.063441895 0.19365746 -0.015939187 
0.15756617 -0.077613056 0.106577955 
0.16150478 -0.04142304 -0.109775044 
-0.15355617 -0.06557094 0.07474656 
-0.36852798 0.044637453 -0.017646655 
-0.08072138 -0.2045462 -0.118441954 
0.45331433 -0.04942893 -0.020976754 
0.43538132 -0.042711567 -0.024177356 
0.2072769 0.027185014 0.10510899 
0.40192744 0.0066743186 0.03956021 
0.10322648 -0.07821413 0.01346311 
0.31267008 0.16626605 -0.052877996 
-0.04322325 -0.039435294 0.08983136 
0.13729778 -0.21294075 -0.12239215 
0.16863649 -0.20143123 0.0715918 
0.13469227 0.17993781 0.005417546 
-0.011980313 0.11524825 -0.09593818 
0.12888636 0.0030483212 -0.09698017 
0.2566638 0.038142525 0.07953809 
0.12032762 -0.20215116 0.11452725 
-0.14400275 -0.049666025 0.049364295 
0.41887888 0.0842329 0.04059806 
0.2808948 0.20238356 0.018207101 
0.32207432 0.14878751 0.05932431 
0.07785113 -0.048725862 -0.056724843 
0.30359402 0.17876634 -0.01690244 
-0.3473939 0.07656649 0.0069257882 
0.12750117 -0.211978 -0.0724959 
0.21263996 0.022601424 -0.10435894 
0.09287611 0.03342808 -0.101974554 
-0.12510478 -0.064122245 0.12670927 
0.0061440105 -0.06786098 0.010663398 
0.105531074 -0.12554486 -0.092941456 
0.014075528 0.046678342 0.10563106 
0.22952709 0.06698087 0.08946058 
0.087723985 0.18823218 0.01689554 
0.105218984 -0.15786262 0.08261825 
0.3036574 0.07240682 0.08912461 
0.050289936 -0.028678032 -0.07885737 
0.03525794 0.17094348 0.054514155 
-0.15561393 -0.06736959 0.091898404 
-0.34647498 0.04308461 -0.018774498 
-0.16578998 -0.014704262 -0.03468038 
-0.1004253 -0.12504205 0.12724844 
-0.13456567 0.06262985 -0.08934206 
0.20650002 0.045986146 -0.1010293 
-0.09516248 0.0893004 0.09878414 
-0.1576383 0.1566535 0.009660468 
-0.24289049 0.06458233 0.024278162 
0.10494969 -0.15217218 -0.07897464 
-0.3644947 0.07359567 -0.009464973 
0.129479 -0.089804925 0.0020214533 
0.1458894 -0.13793014 0.11195591 
-0.46634892 0.0684281 0.003083868 
-0.062387288 0.022863869 0.11520229 
0.17038351 -0.19955142 -0.08866752 
0.38932434 0.09311867 -0.05081186 
0.1327919 0.029763877 -0.10020517 
0.05702722 -0.011825708 -0.090421565 
0.06690771 0.111194596 -0.09631332 
-0.38581145 0.00627875 0.002428851 
-0.34093758 0.0055832644 0.0116647985 
0.4453721 -0.07474418 -0.005701781 
-0.09025045 -0.20260005 -0.15976603 
-0.10070802 -0.18700145 -0.15208836 
0.20733008 0.0038342513 -0.10594439 
0.24561562 -0.04095565 0.05661923 
-0.10997131 0.13220794 0.06411551 
0.26582012 -0.024501896 0.04707743 
-0.054634176 -0.0029926863 -0.11076614 
0.13100678 0.1105668 0.087184235 
-0.01969919 0.13301827 -0.08480052 
0.041198313 -0.05873744 0.035119306 
0.1546403 -0.065094665 0.11237598 
0.14106919 -0.08617117 -0.11343126 
0.3652165 -0.022389235 -0.030184798 
-0.11435566 0.030544318 -0.11003851 
0.14632013 0.15741187 0.04323177 
0.16666272 -0.21588542 0.10596681 
-0.23970054 -0.0051331925 0.0037486765 
0.16251726 -0.20383367 -0.054011162 
0.10669435 -0.07017411 0.029964408 
0.16107586 -0.124752484 -0.0731246 
0.014573943 -0.06585767 -0.016969906 
-0.15682365 -0.077974886 0.09263147 
0.3810335 0.11222945 0.019097963 
-0.09534257 -0.21668163 0.15350994 
0.13372108 0.17206368 -0.025830604 
-0.1467401 -0.038101207 -0.096997775 
0.28031307 0.19106506 -0.033758726 
0.13445364 -0.088543 0.11566703 
0.36067525 0.11977786 -0.0014494061 
0.28026465 0.19201903 0.0319457 
0.3092569 0.13604738 0.10139934 
-0.14060609 -0.1275377 0.13574253 
0.095505916 -0.07721647 0.0006300873 
0.15214662 -0.1745611 0.07670793 
0.0048981598 -0.0609792 0.027130567 
0.10791094 -0.07753891 -0.019344844 
0.29557848 0.15367523 0.10860113 
0.2849275 0.21657631 -0.007977219 
0.25922793 0.1268871 0.05543943 
0.40369487 0.004679778 0.038518455 
-0.13458444 0.17035605 -0.010538537 
-0.049463827 0.08271452 0.10514471 
0.18077505 0.0911016 0.09039225 
-0.030610796 -0.058366947 -0.033820078 
0.28561103 -0.029265583 -0.0018566904 
0.10766502 -0.1274639 -0.10109982 
-0.12474962 0.06354363 -0.09541351 
-0.28570482 0.009513648 0.017193532 
-0.25021407 0.10919609 0.0029475219 
-0.3880116 0.043297533 -0.016368374 
0.22991139 -0.029312955 0.09027357 
0.10188074 0.032636147 0.10136561 
-0.01951473 0.16944481 0.05811893 
0.18589865 -0.08152832 0.08262453 
-0.13699533 -0.04349999 -0.014455225 
0.3055807 0.17454787 0.06439912 
0.061890803 0.17800984 0.041236497 
0.0977286 0.16903797 0.043529704 
0.20317592 -0.0038346485 0.108095646 
0.26488358 0.13584396 -0.04519133 
0.41314533 0.07587389 -0.008003764 
0.16697174 -0.21651553 0.07830594 
0.19513737 0.0059534204 -0.10907112 
0.29399598 0.19658439 -0.069073044 
-0.34253758 -0.0012132225 0.0059308964 
0.064769134 0.037894793 0.104205616 
0.4483584 -0.01579073 0.029552143 
0.31857637 0.15734145 0.03702408 
0.27507478 0.16265789 -0.031342298 
0.28368884 0.17699564 0.08021529 
0.10130722 0.13221903 0.08008421 
0.07115777 0.18144622 0.03519566 
0.17658068 -0.21824354 0.110242665 
-0.04846423 -0.006951936 -0.10682291 
-0.49351805 0.03770581 -0.0021377597 
0.21851264 0.0113236755 -0.10228607 
-0.008537582 -0.035291933 0.06740683 
0.44183022 0.097608924 0.03245764 
0.38534147 0.02052476 0.050861105 
0.15247332 -0.1979144 -0.05270707 
-0.15325601 -0.094715655 0.07813897 
0.35367048 0.027154109 0.06270716 
0.4241495 0.095741004 0.023862049 
-0.13449241 0.0569882 -0.09071164 
0.11704784 -0.17516887 0.11385786 
-0.237105 0.07505247 -0.021867335 
-0.17784244 0.074207336 -0.053027816 
0.040141333 0.16549914 -0.05976957 
0.2533362 -0.049962036 -0.0065786643 
0.14347383 -0.0425613 -0.106279 
0.20970197 -0.08128082 -0.003662812 
-0.20984869 0.09879099 -0.01638592 
0.12868741 -0.048287846 -0.10218312 
0.106654726 -0.093940765 0.09510478 
0.4318256 0.0263928 0.026549412 
0.29941222 0.18661346 0.053655498 
0.153225 -0.20388722 -0.12077252 
0.18017086 0.15307793 -0.03471377 
0.21371527 0.14903389 0.022556713 
0.27672136 0.17109793 -0.03289729 
0.19041856 0.0092420885 0.109299906 
-0.15916233 0.10472977 -0.053398483 
0.026103098 0.06355382 -0.10538236 
-0.07028016 0.18005045 0.034855783 
-0.13873856 -0.047931954 -0.03808966 
0.27542904 0.18270169 0.0051051215 
0.26780015 -0.029753802 -0.03494311 
-0.054911967 -0.032109328 0.10786326 
0.14442429 -0.1360588 -0.113944165 
-0.18173864 0.122209616 0.018887645 
0.0050415825 0.03579843 0.10412751 
0.16710481 0.116645165 0.07755249 
0.3893793 -0.026917076 0.025335426 
0.049053594 0.19946499 0.009115989 
0.105486415 0.081728175 -0.10230656 
0.3174846 0.15248273 0.06983317 
0.42020085 0.060188122 -0.04356185 
-0.107374676 -0.056559127 0.007480683 
0.41624358 -0.0005490927 0.03461592 
0.14514758 -0.03016839 0.103579074 
0.1358527 0.15193509 -0.05312273 
0.19939183 0.095360935 -0.08472955 
-0.32342407 0.08341023 0.004885858 
0.031321045 -0.005273784 0.091498874 
-0.08348877 -0.2168228 0.15811391 
0.315022 0.16225988 -0.038483642 
0.30808458 0.15227361 0.091948494 
-0.060783006 -0.06564378 -0.016982472 
0.13318583 -0.17398441 -0.11695465 
0.12662977 0.18079636 -0.013713555 
-0.092747696 -0.21558613 0.14498703 
0.2179695 0.052943315 -0.09652738 
0.115677126 -0.004491929 -0.0925271 
0.19323735 0.13874896 -0.04940793 
0.32822487 0.022658022 0.05450833 
0.46023178 -0.052467715 0.014746882 
0.013960409 0.003839515 -0.092564225 
0.13693346 0.1587546 -0.044556744 
-0.22424276 0.04065715 0.029427117 
-0.13721022 0.14540184 -0.030491622 
0.32596052 0.052655343 -0.08315633 
-0.0016897554 -0.05939919 -0.030197706 
0.07761081 0.17122541 0.046131942 
-0.014945626 0.19754906 -0.024758963 
0.4115374 0.11100125 -0.041219342 
0.41692734 -0.041362654 -0.01922491 
0.3970114 0.05080077 0.04863287 
-0.11026919 0.12685466 0.06976909 
-0.124504775 -0.08906083 0.13298681 
-0.061601482 0.022625025 -0.11419506 
-0.15263231 -0.06287639 0.07115271 
-0.013679683 -0.054185204 -0.04189796 
0.050629754 0.124765955 0.09022924 
0.24678703 0.022237945 0.086117014 
0.015034823 0.0069395956 -0.094067656 
-0.15420927 -0.050162733 -0.085414335 
0.24374157 0.13236953 -0.049966786 
0.1529685 -0.20618117 0.052957468 
0.19333413 -0.081448466 0.06746112 
0.3834028 0.110266544 -0.0338537 
0.34125838 0.108500846 0.07360575 
0.14795747 -0.0760232 -0.11222379 
0.15052286 0.049827043 -0.105842285 
-0.1109521 0.14077343 0.054242823 
-0.010906972 -0.06637266 0.015177995 
-0.008325615 -0.013660808 0.0872851 
0.15695095 -0.050614223 0.11121306 
0.23115757 -0.04496448 0.0776906 
0.34305963 0.04133786 -0.067574814 
-0.1383534 -0.18856895 -0.093465954 
-0.21773906 0.053870063 0.03149167 
-0.114272244 -0.2084369 0.09999932 
-0.12305195 -0.21651553 0.119040646 
-0.094993085 -0.19728068 -0.15626964 
0.2760047 0.1700195 0.028187491 
-0.06564908 -0.06503806 0.10408337 
0.274598 0.13409291 0.06878038 
0.17841035 -0.00077588443 0.11049634 
-0.12746048 0.13593781 -0.04995139 
0.12459788 -0.2010106 0.11814476 
-0.095869966 0.033728503 -0.114873916 
0.2825021 -0.026870778 0.018420592 
0.33400294 0.02018432 -0.054722097 
0.055156067 0.02169505 -0.10023663 
0.1161156 -0.12045228 -0.110802196 
-0.11207406 0.17627299 -0.018239528 
0.09458567 -0.07688729 -0.004329375 
-0.053490706 -0.04262118 -0.09992715 
-0.084283926 -0.19981562 -0.12756735 
-0.07914385 -0.0646687 -0.11865578 
-0.23352776 -0.0006933068 0.0072339685 
-0.16127731 -0.11772751 -0.09977184 
-0.097653896 -0.19057232 -0.15247662 
-0.3349375 0.06730026 0.011547526 
0.058590308 0.052505523 -0.105943255 
0.41469955 -0.018506054 -0.029921388 
0.07581375 -0.07029128 0.015899628 
-0.046678666 -0.016403807 0.10577047 
0.2540572 -0.036026016 -0.045533296 
-0.45466903 0.053905267 0.009736311 
0.10938329 -0.08412151 -0.06847892 
-0.15476564 -0.1148545 0.12018633 
-0.17091297 0.06433386 -0.06049624 
0.051135916 0.15561825 -0.06748941 
-0.05405058 -0.056954466 0.054926988 
0.10495252 -0.06272714 -0.066590115 
0.15393859 -0.09919239 0.035550363 
0.41696844 0.07355464 0.038804505 
-0.13259953 -0.016217994 0.1026894 
0.12136439 -0.14906208 0.11168344 
0.37753755 0.044070277 0.05724035 
0.06521117 -0.06997358 -0.0119930105 
0.08445807 0.017757364 0.09896028 
0.026328191 -0.011242062 0.0888333 
0.30727175 0.1726865 -0.025073936 
0.015352395 -0.031986453 0.067593046 
0.36232662 0.09392526 0.062055424 
0.29534736 0.20059781 -0.015086528 
0.38256198 0.053148825 0.055121973 
0.05833131 0.047952212 0.10614306 
0.101622306 0.008512136 -0.09549785 
0.27020633 0.1333582 0.06451877 
-0.08267782 -0.21674916 -0.113006376 
-0.14367262 0.004680571 -0.086541384 
0.27827415 0.19197217 -0.015389953 
0.05245744 0.19723076 0.013191266 
0.09765112 -0.03145969 0.07863653 
0.3841888 0.013034882 0.048012774 
0.24542454 -0.035298213 -0.064564615 
-0.09125876 -0.068775505 -0.057434928 
-0.117462195 -0.2119763 0.15084484 
0.25882417 0.029305652 0.076597445 
0.16091473 -0.111200884 -0.09099395 
0.34978577 0.10840745 -0.06652445 
-0.40858424 0.025750067 -0.013199412 
0.36767423 0.115181126 0.034823067 
-0.10996055 0.11661143 0.080906026 
0.32259116 0.15204188 -0.033230714 
-0.2546601 0.059275523 -0.023345128 
0.15180352 -0.21230271 -0.054132283 
-0.10905327 -0.06335776 0.04691482 
0.45592907 -0.03876019 0.023843257 
0.010121941 0.058730762 -0.10552476 
-0.34962493 0.04303899 0.018964844 
0.03149837 0.2009416 0.013167664 
0.26282483 0.107519925 0.076041706 
-0.07619852 0.058303043 -0.10979231 
0.019842315 -0.034441873 -0.06711563 
-0.13787068 -0.1800565 -0.089851506 
0.11464143 -0.14929663 0.1072628 
0.19439128 0.0035552194 0.10956858 
-0.1455174 -0.19630706 0.10045816 
-0.116515934 -0.17484184 0.14902325 
-0.08771221 0.14808859 -0.059512332 
-0.0991794 0.17519745 -0.026167706 
-0.07030466 -0.06701709 0.11222006 
-0.080492884 -0.0611876 -0.021958573 
-0.11123991 -0.022486301 0.121500894 
0.059844024 -0.06438378 0.024441563 
-0.03388939 -0.02828054 -0.088361375 
-0.15895455 -0.15999609 0.102777295 
-0.15602829 -0.02821562 -0.02922964 
-0.0636988 -0.06337734 0.023975357 
0.10547917 -0.105684265 -0.091803424 
-0.030469809 0.117104694 0.0934809 
0.11079017 -0.15682629 -0.104335 
-0.056673825 0.043815017 0.11216781 
0.14324206 -0.15931863 0.06397503 
-0.035651598 -0.06260183 -0.024610393 
0.11192146 0.14259546 -0.068917565 
0.4501195 0.12395591 0.040619742 
0.26734114 0.13449402 -0.055193678 
0.11525111 0.15986662 -0.049529392 
0.1879855 -0.0879087 0.046963267 
0.41882917 0.071201324 0.021750351 
0.3110264 0.010991385 -0.044428486 
0.22369029 0.14082952 0.03709019 
0.12258166 0.005243842 -0.0953495 
0.18641557 0.059922617 -0.10115093 
0.41761735 0.10070239 -0.04746982 
-0.10595919 -0.1331368 0.08819311 
0.15795642 -0.12031582 -0.058927096 
0.20902465 0.09771776 -0.082016826 
0.2346431 0.008017349 0.09378036 
0.3506 0.1224544 0.040897466 
0.0054905275 0.20578554 0.010771162 
-0.19065984 0.12502003 0.011157901 
0.034907255 0.11065873 0.097908735 
0.1840327 0.10299565 -0.083526425 
0.109827824 -0.07865566 0.016889427 
0.15847272 -0.11903001 -0.058546524 
0.15197553 -0.1910976 0.057855126 
0.12995647 -0.21651553 -0.08613331 
-0.29230812 0.0045798826 0.013894166 
0.2102524 0.012659293 -0.10556585 
0.33351672 0.094368026 -0.09241554 
-0.3000488 0.037716903 -0.02200572 
0.13851827 -0.06605328 -0.112759046 
0.35628122 0.02399228 0.062103026 
0.059158444 0.07911433 -0.10592209 
0.28303906 -0.0045930715 0.050528135 
0.14212713 -0.050387487 0.10882198 
0.2566359 0.14334498 -0.009033804 
0.29821575 0.14364932 0.11463405 
0.16871148 0.16405338 -0.022468867 
0.43172365 -0.00015895812 0.032101125 
0.11086799 -0.1688448 -0.06827149 
0.29537544 -0.025355121 0.010171952 
-0.14383471 -0.06128789 0.056035873 
0.3991904 -0.04766045 -0.007855758 
0.14180088 -0.108884126 0.1146311 
-0.15545794 0.15991381 -0.0075716325 
0.1067488 -0.06754409 -0.06252219 
-0.08969159 -0.19811822 -0.15101016 
0.12313294 -0.092477575 0.0427174 
-0.37223205 0.033882566 -0.017577266 
-0.20979775 0.025744803 -0.027575204 
0.17251277 -0.096287295 0.082304806 
-0.38304773 0.069721155 -0.010400097 
-0.20628794 -0.0021292728 0.009267956 
-0.13979696 -0.008145659 -0.09155292 
0.034675766 0.029012812 0.1014217 
0.27324432 0.017616605 0.065252915 
0.043742087 -0.02529043 -0.08033166 
-0.053043928 0.022246605 0.114341825 
-0.072043434 -0.06697391 -0.06766226 
-0.34260634 0.015379087 0.016287725 
0.30715346 0.17386964 -0.04235171 
0.19506955 0.12301365 -0.06524272 
-0.07056208 0.13207279 -0.081224106 
-0.07377835 -0.02923168 -0.12019815 
-0.056878936 -0.04782747 0.101568684 
0.12366281 -0.21005212 -0.077680685 
0.1673371 -0.1956151 -0.09448931 
0.16598219 -0.07046577 0.10609636 
-0.08981684 -0.06766589 0.055036563 
-0.05262685 0.20205222 -0.013569568 
0.11757415 -0.20082086 -0.06838163 
-0.13169588 0.0630969 0.089241885 
-0.121563405 -0.11486695 0.1381918 
-0.22726496 0.047154512 -0.02875738 
0.007950531 0.031593714 -0.10255344 
0.2815233 0.0571984 0.06985484 
-0.21259807 0.05326089 0.03270605 
-0.16371551 0.03724238 0.070714526 
0.104268126 0.07666219 -0.10305995 
-0.106310494 -0.058189902 0.03235593 
0.3327102 -0.029483715 0.0042012394 
-0.09570283 -0.11979488 -0.1109914 
0.01885676 -0.054301854 0.040988028 
-0.08276374 -0.21444961 0.119707614 
-0.090635546 0.19481269 0.007481135 
-0.15629396 -0.09768471 0.08493953 
-0.14288832 0.006906034 -0.08805987 
0.06873257 -0.046858616 -0.059127342 
0.07881014 0.050636694 0.105340146 
-0.1262574 -0.17321298 0.14991377 
0.3070493 0.08309917 0.101214156 
0.06060256 0.07567715 -0.105854794 
0.023959028 0.1825419 0.04186497 
0.20113547 0.09608642 0.084023766 
0.19439253 0.13500494 0.053697553 
-0.12235568 -0.0979218 -0.06564458 
0.25946745 0.0027717233 -0.07391755 
-0.08490475 0.10550631 -0.09227031 
-0.388023 0.058994 0.014205516 
-0.24313676 0.11552083 0.0005429818 
-0.15756805 -0.0265163 -0.014916504 
-0.28746969 0.004148035 0.013799363 
-0.121933 0.0018130542 0.11133055 
0.12790488 0.11410706 -0.0860753 
0.10079008 0.14593688 -0.067900315 
-0.06161897 0.20078498 0.013419077 
0.1962021 -0.083913565 -0.04575528 
0.11096331 0.14001659 0.06969155 
0.13464953 0.056506544 -0.10164758 
-0.4690241 0.047564 0.008271762 
-0.15051086 0.0084994 -0.0802154 
-0.081500165 -0.078243054 -0.0809526 
0.20131765 -0.085762024 0.014793349 
-0.22999199 0.10750685 -0.0061141592 
-0.17077127 0.08306124 0.053926095 
-0.35053638 0.030907568 0.019287514 
-0.11141893 -0.15311284 -0.09127202 
0.20506766 0.101111084 0.08184364 
-0.09229422 -0.09846187 -0.08251795 
0.08341999 0.016612995 0.09872534 
0.43345714 0.10913333 0.046394337 
0.1481936 -0.06590748 0.11357627 
0.47151142 -0.020195978 0.016535912 
0.120266154 0.15059552 0.059475485 
-0.12990776 0.15689093 0.026056778 
0.121553265 0.11315902 -0.087580025 
0.26813227 -0.018270774 -0.051188074 
-0.12779407 0.011844272 -0.10488825 
-0.16158248 -0.12057997 0.10419215 
0.074406475 0.03944073 -0.104261085 
0.28484604 0.17142531 -0.08610716 
0.23792085 0.14757298 0.0032883026 
-0.057243157 0.14493535 0.070053734 
0.29258582 0.20900731 0.03923358 
-0.08701 0.15453784 -0.053034548 
0.2841332 0.1966474 0.06438741 
-0.30081227 0.06992649 -0.011653192 
-0.087041356 0.1334028 0.07582131 
-0.15296878 -0.17384598 0.09809528 
-0.1224597 -0.21651553 0.12402343 
-0.21688819 0.083832234 -0.024000484 
-0.08811101 0.16827667 0.038642008 
-0.31471518 0.06421637 0.013415453 
-0.25192496 0.05758339 -0.024316305 
-0.12524912 0.12914437 -0.058310397 
0.37972367 0.101024546 0.05405763 
0.037326623 0.16324334 0.061463915 
-0.10973512 0.069869675 0.101307996 
-0.28662115 0.06478105 0.016174074 
0.07100976 0.026686039 0.10141554 
0.37337565 -0.034365863 0.014972259 
0.15295242 0.0066534327 0.10418474 
0.0296348 0.13082105 0.088441916 
-0.061605044 -0.063586645 0.08594303 
0.28692254 0.15335804 0.10228353 
-0.16683966 0.016655048 0.06397706 
-0.34199038 0.069140166 -0.0107475 
0.09508403 -0.018973276 -0.08641404 
-0.09725126 -0.1789114 -0.12023217 
-0.14138116 -0.20625722 -0.11170025 
-0.053975876 0.113986894 0.09352929 
0.04420133 0.12784815 -0.088767074 
-0.033833012 -0.037130542 -0.082268015 
0.39467385 0.06602186 0.0515901 
0.16542564 -0.10647319 -0.053577557 
0.37978733 -0.028829094 0.02539893 
0.36705336 0.042211007 0.06046625 
0.14146498 0.10986742 -0.086457446 
0.13777983 -0.13721777 0.0584562 
0.03726306 0.16558224 -0.060117256 
0.23146349 -0.02836589 0.08948028 
0.32566306 0.096700005 0.10413199 
-0.060382403 0.1961083 -0.020734852 
0.029798709 0.04403462 -0.10526243 
0.103696086 -0.14367507 0.08980894 
0.15511444 -0.21651553 -0.095814295 
-0.09353458 -0.21618228 0.115494244 
-0.2974488 0.050660066 -0.019848969 
0.28895658 0.21595176 0.008657427 
0.4257953 0.108714394 -0.029473072 
0.17889524 -0.06250148 0.1035544 
-0.27684373 -0.0080536865 0.0045762626 
-0.14897649 0.106296204 0.060300697 
0.13789071 -0.119959705 0.11547681 
0.14649168 0.04600103 0.10583136 
0.2227285 0.050763924 -0.09549479 
0.29898763 0.18471803 -0.07167647 
0.32941657 0.00067672157 -0.04040783 
0.30847466 0.17068948 0.03496994 
0.104951784 -0.14351977 0.07913896 
0.32588646 0.06232438 0.10006141 
0.28695378 0.19370863 0.08199589 
0.3212053 0.14193013 -0.07347122 
0.046697784 0.006822154 0.09685956 
0.18529089 0.060946256 -0.10109105 
-0.30286255 0.074589156 0.009600984 
0.4195463 0.075510696 0.028806172 
-0.03963257 0.18558246 0.03798722 
-0.123323224 0.13295017 -0.05554742 
0.14308923 -0.17321752 -0.11649031 
-0.1208781 -0.114371486 0.13805878 
0.3081668 0.1571712 -0.085717194 
-0.14174826 -0.18593676 0.14607945 
0.19132143 0.1462987 -0.040990513 
-0.32298073 0.072117716 -0.008642027 
0.081936486 0.15946774 0.05867722 
0.12420373 -0.11000597 0.052857287 
0.075022444 -0.011214951 -0.09062266 
0.16513649 0.14751762 -0.048638076 
-0.14497021 0.15523733 -0.01819555 
0.26036033 -0.040186815 -0.023609897 
0.33851522 0.07404252 -0.105019055 
0.29964903 0.18804845 -0.024269272 
0.0644721 0.018213324 -0.09927049 
0.40630066 0.07060217 0.04829481 
0.30447477 0.007964315 0.043313727 
0.22332935 0.10805263 0.07362217 
0.34286115 -0.0021642505 -0.04370227 
0.42361912 0.103139296 0.024504613 
0.42500642 -0.055883847 0.013888224 
0.21810631 -0.07673396 -0.017242994 
-0.14942515 -0.10199295 -0.075424775 
-0.030060375 0.19335364 0.03016624 
0.1806451 -0.08055868 0.089341894 
-0.043759927 0.09976998 -0.1016302 
-0.15560058 -0.066202976 -0.08212521 
0.027393037 0.07880338 -0.10535169 
0.27623284 0.15846528 0.054290704 
0.22515993 0.07122057 -0.08977566 
0.28825995 0.099006236 0.09309665 
0.002329319 0.18529715 0.039823677 
0.16549543 -0.21667315 0.061490573 
-0.27925828 0.04014476 -0.023241837 
-0.048979506 -0.038616598 -0.09679429 
0.09902279 0.05705425 0.1038795 
-0.16542315 0.055106062 0.06678284 
0.17367774 -0.094127424 0.01596636 
-0.10081646 -0.074691996 -0.1309669 
-0.17732157 0.015943037 -0.048021317 
-0.03914497 0.18958704 0.033369616 
-0.13913797 -0.01836982 -0.09484459 
-0.082942694 -0.08681046 0.10076374 
0.06713643 0.17629008 -0.04242223 
0.26497418 0.117876366 -0.07068503 
0.021859609 0.100693725 0.10049145 
-0.013971286 0.032433353 -0.10822571 
-0.1562257 -0.17915703 -0.115276605 
0.47449312 -0.0234954 0.0043866006 
0.10967285 -0.069995716 -0.051627733 
-0.1220643 -0.08882662 0.13377629 
-0.13688841 0.0354731 -0.092959 
-0.15636969 -0.16917212 0.12675625 
0.15274692 -0.13407582 0.10813912 
0.123144194 -0.17970118 0.117566705 
0.2481184 -0.025764784 -0.07143615 
0.22177532 0.14450346 0.02836991 
-0.22513384 0.10380835 -0.008309566 
